1.39824, 0.302952, 0.302952, 0.302952, 1.21181, 0.324592, 0.324592, 0.227214, 0.227214, 0.23009, 0.178207, 0.178207, 0.239173, 0.242362, 0.236067, 0.0343613, 0.0380275, 0.0318339, 0.0318339, 0.0318339, 0.16988, 0.171482, 0.0321151, 0.15536, 0.148993, 0.148993, 0.148993, 0.150224, 0.14659, 0.14659, 0.133655, 0.133655, 0.0826234, 0.0826234, 0.0908857, 0.0908857, 0.0987888, 0.0987888, 0.0987888, 0.0987888, 0.0499372, 0.0499372, 0.0499372, 0.0499372, 0.0804298, 0.0804298, 0.0544226, 0.0544226, 0.0966869, 0.0966869, 0.0966869, 0.0966869, 0.0993286, 0.108197, 0.127113, 0.0826234, 0.133655, 0.133655, 0.110836, 0.110836, 0.0841534, 0.112901, 0.0575226, 0.0575226, 0.0575226, 0.0575226, 0.118033, 0.118033, 0.110836, 0.110836, 0.110836, 0.110836, 0.0594024, 0.0594024, 0.12536, 0.121181, 0.216395, 0.216395, 0.216395, 0.216395, 0.227214, 0.0484724, 0.193374, 0.193374, 0.0956691, 0.0956691, 0.221672, 0.221672, 0.13565, 0.138757, 0.267311, 0.267311, 0.227214, 0.227214, 0.227214, 0.227214, 0.0649184, 0.0649184, 0.0649184, 0.0649184, 0.119586, 0.119586, 0.119586, 0.119586, 0.154044, 0.154044, 0.107557, 0.0656214, 0.0673227, 0.0673227, 0.108845, 0.159449, 0.17478, 0.17478, 0.0670743, 0.224409, 0.0680792, 0.0680792, 0.11652, 0.11652, 0.413117, 0.413117, 0.413117, 0.413117, 0.0540986, 0.0540986, 0.0540986, 0.0540986, 0.0547504, 0.0547504, 0.0540986, 0.0540986, 0.0540986, 0.0540986, 0.0542601, 0.0427697, 0.0455567, 0.0455567, 0.363543, 0.356414, 0.432789, 0.432789, 0.0516396, 0.0516396, 0.0554181, 0.0552497, 0.0531495, 0.0526874, 0.0526874, 0.0460181, 0.0478346, 0.0478346, 0.0463703, 0.0463703, 0.0568036, 0.0568036, 0.0550822, 0.550822, 0.454428, 0.550822, 0.0422724, 0.534622, 0.432789, 0.699121, 0.432789, 0.0594024, 0.0588257, 0.0588257, 0.0588257, 0.224409, 0.221672, 0.221672, 0.216395, 0.216395, 0.0603892, 0.0603892, 0.0603892, 0.29318, 0.114322, 0.0609971, 0.154044, 0.193374, 0.193374, 0.191338, 0.189345, 0.193374, 0.0507741, 0.0592089, 0.0592089, 0.0635564, 0.0635564, 0.0635564, 0.139824, 0.171482, 0.171482, 0.227214, 0.0797243, 0.0797243, 0.133655, 0.162296, 0.162296, 0.16086, 0.159449, 0.158062, 0.16086, 0.0536199, 0.0631151, 0.197578, 0.0678251, 0.0678251, 0.122819, 0.14659, 0.14659, 0.145417, 0.183607, 0.0693784, 0.142009, 0.117272, 0.117272, 0.117272, 0.117272, 0.117272, 0.0715635, 0.0715635, 0.0710044, 0.0710044, 0.110164, 0.162296, 0.128916, 0.128916, 0.158062, 0.108197, 0.108845, 0.108845, 0.0822495, 0.0680792, 0.0815118, 0.103279, 0.103279, 0.119586, 0.119586, 0.144263, 0.0663399, 0.0663399, 0.102119, 0.0656214, 0.0653854, 0.0776801, 0.0998744, 0.0998744, 0.0972039, 0.0977265, 0.076055, 0.0946726, 0.0946726, 0.0946726, 0.0951683, 0.0951683, 0.0626798, 0.0738908, 0.0622505, 0.062038, 0.061827, 0.0922697, 0.0614093, 0.0612025, 0.0718464, 0.0607931, 0.0605905, 0.0603892, 0.0891036, 0.0599906, 0.0597932, 0.0597932, 0.0873901, 0.0873901, 0.0865578, 0.0588257, 0.0586359, 0.0584474, 0.0735917, 0.0678251, 0.0841534, 0.0841534, 0.0822495, 0.0826234, 0.0826234, 0.0569816, 0.0568036, 0.0566266, 0.0564507, 0.056276, 0.0561023, 0.0559297, 0.0557581, 0.0555876, 0.0554181, 0.0552497, 0.0637794, 0.0549158, 0.0547504, 0.054586, 0.0770218, 0.0542601, 0.0540986, 0.0539381, 0.0537785, 0.0536199, 0.0534622, 0.0533054, 0.064004, 0.064004, 0.0528405, 0.0526874, 0.0525351, 0.0523837, 0.0522332, 0.0520835, 0.0622505, 0.0622505, 0.0609971, 0.0609971, 0.0513478, 0.0512032, 0.0510594, 0.0509164, 0.0507741, 0.0506327, 0.0504921, 0.0503522, 0.0502131, 0.0500748, 0.0586359, 0.0586359, 0.0582601, 0.0582601, 0.057889, 0.057889, 0.0491274, 0.048995
2.59673, 3.02952, 3.63543, 4.54428, 2.27214, 9.08857, 18.1771, 3.63543, 0.191338, 3.63543, 0.178207, 0.178207, 0.197578, 0.179972, 0.179972, 0.179972, 0.179972, 0.147782, 0.147782, 0.0406647, 0.176477, 0.183607, 0.183607, 0.15536, 0.14659, 0.14659, 0.14659, 0.0425694, 0.14659, 0.14659, 0.133655, 0.133655, 0.0826234, 0.0826234, 0.0908857, 0.0908857, 0.0987888, 0.0987888, 0.0987888, 0.0987888, 0.0499372, 0.0499372, 0.0499372, 0.0499372, 0.0804298, 0.0804298, 0.0544226, 0.0544226, 0.0966869, 0.0966869, 0.0966869, 0.0966869, 0.104466, 0.104466, 0.104466, 0.171482, 0.133655, 0.133655, 0.110836, 0.110836, 0.179972, 0.112901, 0.0575226, 0.0575226, 0.0575226, 0.0575226, 0.118033, 0.118033, 0.110836, 0.110836, 0.110836, 0.110836, 0.0594024, 0.0594024, 0.118033, 0.216395, 0.216395, 0.216395, 0.216395, 0.216395, 0.23009, 0.256016, 0.193374, 0.193374, 0.0956691, 0.0956691, 0.221672, 0.221672, 0.256016, 0.271301, 0.267311, 0.267311, 0.227214, 0.227214, 0.227214, 0.227214, 0.0649184, 0.0649184, 0.0649184, 0.0649184, 0.119586, 0.119586, 0.119586, 0.119586, 0.154044, 0.154044, 0.330493, 0.189345, 0.0673227, 0.0673227, 0.15536, 0.159449, 0.17478, 0.17478, 0.403936, 0.413117, 0.403936, 0.413117, 0.11652, 0.11652, 0.413117, 0.413117, 0.413117, 0.413117, 0.0540986, 0.0540986, 0.0540986, 0.0540986, 0.0547504, 0.0547504, 0.0540986, 0.0540986, 0.0540986, 0.0540986, 0.0431761, 0.042371, 0.042371, 0.139824, 0.144263, 0.386748, 0.432789, 0.432789, 0.413117, 0.0461349, 0.13268, 0.131718, 0.130771, 0.46608, 0.133655, 0.395155, 0.0478346, 0.0478346, 0.0463703, 0.0463703, 0.128008, 0.34956, 0.432789, 0.432789, 0.626798, 0.626798, 0.626798, 0.0455567, 0.0455567, 0.478346, 0.0479608, 0.308087, 0.308087, 0.308087, 0.112901, 0.112205, 0.221672, 0.221672, 0.216395, 0.216395, 0.165247, 0.165247, 0.10507, 0.10507, 0.10507, 0.10507, 0.049529, 0.15536, 0.15536, 0.15536, 0.100426, 0.100426, 0.100426, 0.14659, 0.147782, 0.147782, 0.0972039, 0.0815118, 0.0811479, 0.0807873, 0.142009, 0.0800755, 0.0797243, 0.0797243, 0.079031, 0.0786889, 0.0783497, 0.0918037, 0.0776801, 0.0773495, 0.0904335, 0.0904335, 0.0904335, 0.12623, 0.12623, 0.118033, 0.12623, 0.074803, 0.0744965, 0.0741924, 0.0738908, 0.0735917, 0.0732949, 0.0730006, 0.0727086, 0.0724189, 0.0721315, 0.0718464, 0.0715635, 0.0715635, 0.0710044, 0.0710044, 0.070454, 0.070182, 0.0699121, 0.0696442, 0.0693784, 0.0691146, 0.0688528, 0.086972, 0.0683351, 0.0680792, 0.0895426, 0.0891036, 0.0673227, 0.0670743, 0.0668277, 0.0665829, 0.0663399, 0.0663399, 0.0658592, 0.0656214, 0.0653854, 0.065151, 0.0998744, 0.0998744, 0.0644579, 0.0642302, 0.064004, 0.0637794, 0.0822495, 0.0786889, 0.0631151, 0.0628967, 0.0776801, 0.0624644, 0.0800755, 0.0797243, 0.061827, 0.0616174, 0.0614093, 0.0612025, 0.0780135, 0.0607931, 0.0773495, 0.0603892, 0.0601892, 0.0599906, 0.0597932, 0.0597932, 0.0873901, 0.0873901, 0.0590167, 0.0588257, 0.0586359, 0.0584474, 0.0582601, 0.0580739, 0.0841534, 0.0841534, 0.0575226, 0.0573411, 0.0571608, 0.0569816, 0.0568036, 0.0710044, 0.0683351, 0.0680792, 0.0561023, 0.067573, 0.0696442, 0.0693784, 0.0691146, 0.0552497, 0.0550822, 0.0549158, 0.0680792, 0.054586, 0.0544226, 0.0542601, 0.0540986, 0.0668277, 0.0665829, 0.0663399, 0.0534622, 0.0533054, 0.064004, 0.064004, 0.0528405, 0.0526874, 0.0626798, 0.0523837, 0.0522332, 0.064004, 0.0622505, 0.0622505, 0.0609971, 0.0609971, 0.0513478, 0.0626798, 0.0510594, 0.0509164, 0.0507741, 0.061827, 0.0597932, 0.0595972, 0.0502131, 0.0592089, 0.0586359, 0.0586359, 0.0582601, 0.0582601, 0.057889, 0.057889, 0.057889, 0.048995
0.0387572, 0.0387572, 0.324592, 0.297986, 2.59673, 2.59673, 0.211362, 0.211362, 0.0342965, 0.0342965, 0.185481, 0.185481, 0.0396881, 0.035227, 0.0345573, 0.181771, 0.159449, 0.159449, 0.178207, 0.17478, 0.156699, 0.156699, 0.156699, 0.156699, 0.14659, 0.14659, 0.14659, 0.14659, 0.14659, 0.14659, 0.14659, 0.14659, 0.143127, 0.143127, 0.124501, 0.124501, 0.0987888, 0.0987888, 0.0987888, 0.0987888, 0.115045, 0.115045, 0.11652, 0.11652, 0.11652, 0.11652, 0.11652, 0.11652, 0.0966869, 0.0966869, 0.0966869, 0.0966869, 0.11652, 0.11652, 0.0561023, 0.0561023, 0.0873901, 0.0873901, 0.178207, 0.179972, 0.0927405, 0.0927405, 0.0927405, 0.0927405, 0.151476, 0.150224, 0.131718, 0.131718, 0.110836, 0.110836, 0.110836, 0.110836, 0.216395, 0.216395, 0.211362, 0.213849, 0.216395, 0.216395, 0.216395, 0.216395, 0.239173, 0.239173, 0.245637, 0.245637, 0.25246, 0.25246, 0.284018, 0.284018, 0.29318, 0.29318, 0.284018, 0.284018, 0.227214, 0.227214, 0.227214, 0.227214, 0.0649184, 0.0649184, 0.0649184, 0.0649184, 0.119586, 0.119586, 0.119586, 0.119586, 0.181771, 0.181771, 0.336614, 0.0932161, 0.275411, 0.275411, 0.25246, 0.25246, 0.201968, 0.201968, 0.199749, 0.199749, 0.454428, 0.454428, 0.432789, 0.432789, 0.478346, 0.478346, 0.908857, 0.908857, 0.0540986, 0.0540986, 0.0540986, 0.0540986, 0.568036, 0.586359, 0.0544226, 0.0544226, 0.0441193, 0.0441193, 0.605905, 0.256016, 0.145417, 0.227214, 0.29318, 0.29318, 0.144263, 0.443345, 0.443345, 0.443345, 0.443345, 0.443345, 0.221672, 0.363543, 0.324592, 0.324592, 0.313399, 0.313399, 0.0571608, 0.204238, 0.29318, 0.29318, 0.0487323, 0.0487323, 0.0487323, 0.324592, 0.324592, 0.284018, 0.185481, 0.183607, 0.181771, 0.179972, 0.118805, 0.166763, 0.108197, 0.108197, 0.115045, 0.115045, 0.159449, 0.0899858, 0.178207, 0.0904335, 0.104466, 0.104466, 0.0918037, 0.0918037, 0.0918037, 0.0918037, 0.0918037, 0.0918037, 0.0918037, 0.0918037, 0.159449, 0.0853387, 0.0837656, 0.15536, 0.113607, 0.113607, 0.0826234, 0.0826234, 0.0826234, 0.0822495, 0.081879, 0.0815118, 0.0811479, 0.0807873, 0.0833814, 0.0833814, 0.0797243, 0.0873901, 0.079031, 0.0776801, 0.0776801, 0.0776801, 0.0776801, 0.0773495, 0.0804298, 0.0804298, 0.0804298, 0.0804298, 0.0754238, 0.0751121, 0.0770218, 0.0770218, 0.0770218, 0.0770218, 0.0757381, 0.0757381, 0.0732949, 0.0712829, 0.0712829, 0.0712829, 0.0712829, 0.117272, 0.0715635, 0.0712829, 0.0710044, 0.0707282, 0.0766968, 0.070182, 0.0691146, 0.0691146, 0.0691146, 0.0691146, 0.0673227, 0.0673227, 0.0680792, 0.0680792, 0.0678251, 0.0732949, 0.0730006, 0.0663399, 0.0724189, 0.0656214, 0.0660987, 0.0656214, 0.0656214, 0.0710044, 0.0707282, 0.070454, 0.0644579, 0.0644579, 0.0642302, 0.063335, 0.063335, 0.0631151, 0.0626798, 0.0626798, 0.0631151, 0.0622505, 0.0646873, 0.0646873, 0.0646873, 0.0614093, 0.0614093, 0.0614093, 0.0660987, 0.0605905, 0.0603892, 0.0605905, 0.0597932, 0.0649184, 0.0646873, 0.0592089, 0.0590167, 0.0590167, 0.0592089, 0.0590167, 0.0590167, 0.0631151, 0.0628967, 0.0626798, 0.0624644, 0.0573411, 0.0571608, 0.0571608, 0.0568036, 0.0568036, 0.0564507, 0.0564507, 0.0564507, 0.0564507, 0.0603892, 0.0601892, 0.0599906, 0.0552497, 0.0550822, 0.0550822, 0.0547504, 0.0590167, 0.0588257, 0.0542601, 0.0540986, 0.0540986, 0.0537785, 0.057889, 0.0534622, 0.0533054, 0.0531495, 0.0531495, 0.0528405, 0.0528405, 0.0529946, 0.0529946, 0.056276, 0.0561023, 0.0559297, 0.0519347, 0.0520835, 0.0514933, 0.0513478, 0.0550822, 0.0510594, 0.0509164, 0.0507741, 0.0507741, 0.0504921, 0.0504921, 0.0502131, 0.0502131, 0.0499372, 0.0499372, 0.0496643, 0.0496643, 0.0493944, 0.0493944
4.54428, 3.63543, 18.1771, 18.1771, 0.195453, 0.313399, 0.211362, 0.211362, 3.63543, 3.63543, 0.185481, 0.185481, 0.193374, 0.193374, 0.17478, 0.17478, 0.159449, 0.159449, 0.17478, 0.17478, 0.156699, 0.156699, 0.156699, 0.156699, 0.14659, 0.14659, 0.14659, 0.14659, 0.14659, 0.14659, 0.14659, 0.14659, 0.148993, 0.151476, 0.124501, 0.124501, 0.0987888, 0.0987888, 0.0987888, 0.0987888, 0.115045, 0.115045, 0.11652, 0.11652, 0.11652, 0.11652, 0.11652, 0.11652, 0.0966869, 0.0966869, 0.0966869, 0.0966869, 0.11652, 0.11652, 0.0561023, 0.0561023, 0.0873901, 0.0873901, 0.0751121, 0.195453, 0.0927405, 0.0927405, 0.0927405, 0.0927405, 0.131718, 0.13268, 0.131718, 0.131718, 0.110836, 0.110836, 0.110836, 0.110836, 0.216395, 0.216395, 0.216395, 0.216395, 0.216395, 0.216395, 0.216395, 0.216395, 0.239173, 0.239173, 0.245637, 0.245637, 0.25246, 0.25246, 0.284018, 0.284018, 0.29318, 0.29318, 0.284018, 0.284018, 0.227214, 0.227214, 0.227214, 0.227214, 0.0649184, 0.0649184, 0.0649184, 0.0649184, 0.119586, 0.119586, 0.119586, 0.119586, 0.181771, 0.181771, 0.34956, 0.189345, 0.275411, 0.275411, 0.25246, 0.25246, 0.201968, 0.201968, 0.206558, 0.206558, 0.454428, 0.454428, 0.432789, 0.432789, 0.478346, 0.478346, 0.908857, 0.908857, 0.0540986, 0.0540986, 0.0540986, 0.0540986, 1.65247, 1.65247, 0.0544226, 0.0544226, 0.0441193, 0.0441193, 0.0540986, 0.0540986, 0.139824, 0.115778, 0.29318, 0.29318, 0.115778, 0.288526, 0.519347, 0.0464888, 0.0464888, 0.0464888, 0.127113, 0.363543, 0.324592, 0.324592, 0.313399, 0.313399, 0.121994, 0.386748, 0.29318, 0.29318, 0.395155, 0.395155, 0.356414, 0.297986, 0.0584474, 0.0453295, 0.259673, 0.179972, 0.179972, 0.112901, 0.113607, 0.0972039, 0.108197, 0.108197, 0.0479608, 0.0951683, 0.0904335, 0.0951683, 0.0998744, 0.0993286, 0.104466, 0.104466, 0.0918037, 0.0918037, 0.0918037, 0.0918037, 0.0918037, 0.0918037, 0.0918037, 0.0918037, 0.122819, 0.0927405, 0.0927405, 0.0922697, 0.113607, 0.113607, 0.0826234, 0.0826234, 0.0815118, 0.0908857, 0.0804298, 0.0804298, 0.0804298, 0.0804298, 0.0833814, 0.0833814, 0.0878123, 0.079031, 0.0793761, 0.107557, 0.108197, 0.0841534, 0.0841534, 0.0837656, 0.0804298, 0.0804298, 0.0804298, 0.0804298, 0.081879, 0.0815118, 0.0770218, 0.0770218, 0.0770218, 0.0770218, 0.0757381, 0.0757381, 0.0715635, 0.0715635, 0.0724189, 0.0724189, 0.0724189, 0.0721315, 0.0946726, 0.0946726, 0.0946726, 0.070454, 0.070454, 0.070454, 0.0918037, 0.0922697, 0.0741924, 0.0741924, 0.0673227, 0.0673227, 0.0741924, 0.0680792, 0.0680792, 0.0878123, 0.0882385, 0.0715635, 0.0724189, 0.0665829, 0.0665829, 0.0663399, 0.0660987, 0.0658592, 0.0841534, 0.0841534, 0.0644579, 0.0644579, 0.0646873, 0.064004, 0.0631151, 0.0815118, 0.0626798, 0.0626798, 0.063335, 0.0631151, 0.0624644, 0.0626798, 0.0624644, 0.0622505, 0.062038, 0.061827, 0.0616174, 0.0614093, 0.0612025, 0.0609971, 0.0607931, 0.0605905, 0.0603892, 0.0601892, 0.0590167, 0.0590167, 0.0595972, 0.0741924, 0.0741924, 0.0741924, 0.0584474, 0.0584474, 0.0584474, 0.0582601, 0.0571608, 0.0571608, 0.0568036, 0.0568036, 0.0573411, 0.0571608, 0.0569816, 0.0568036, 0.0566266, 0.0564507, 0.056276, 0.0691146, 0.0550822, 0.0550822, 0.0552497, 0.0554181, 0.0552497, 0.0550822, 0.0540986, 0.0540986, 0.0537785, 0.0544226, 0.0542601, 0.0540986, 0.0531495, 0.0531495, 0.0528405, 0.0528405, 0.0529946, 0.0531495, 0.0529946, 0.0528405, 0.0526874, 0.0525351, 0.0523837, 0.0522332, 0.0520835, 0.0519347, 0.0517867, 0.0516396, 0.0507741, 0.0507741, 0.0504921, 0.0504921, 0.0502131, 0.0502131, 0.0499372, 0.0499372, 0.0496643, 0.0496643, 0.0493944, 0.0493944
0.197578, 0.197578, 0.17478, 0.17478, 0.17478, 0.17478, 0.035227, 0.035227, 0.179972, 0.179972, 0.0344264, 0.0344264, 0.179972, 0.17478, 0.17478, 0.187393, 0.151476, 0.151476, 0.176477, 0.151476, 0.142009, 0.142009, 0.0658592, 0.0658592, 0.121181, 0.121181, 0.101548, 0.140908, 0.11652, 0.11652, 0.0800755, 0.117272, 0.122819, 0.122819, 0.124501, 0.124501, 0.0776801, 0.123654, 0.0833814, 0.0833814, 0.118033, 0.118033, 0.11652, 0.11652, 0.118033, 0.118033, 0.0857412, 0.086972, 0.118033, 0.118805, 0.119586, 0.119586, 0.119586, 0.119586, 0.121994, 0.121994, 0.181771, 0.181771, 0.185481, 0.185481, 0.105681, 0.105681, 0.105681, 0.105681, 0.191338, 0.191338, 0.201968, 0.201968, 0.206558, 0.206558, 0.206558, 0.206558, 0.133655, 0.133655, 0.227214, 0.219002, 0.219002, 0.219002, 0.239173, 0.239173, 0.239173, 0.239173, 0.239173, 0.239173, 0.25246, 0.25246, 0.25246, 0.25246, 0.25246, 0.336614, 0.336614, 0.336614, 0.0882385, 0.0882385, 0.0882385, 0.0882385, 0.106924, 0.106924, 0.088669, 0.173116, 0.0966869, 0.0966869, 0.37869, 0.37869, 0.0936966, 0.0936966, 0.0936966, 0.0936966, 0.37869, 0.37869, 0.422724, 0.432789, 0.0547504, 0.0547504, 0.0547504, 0.0547504, 0.605905, 0.605905, 0.699121, 0.699121, 0.605905, 0.605905, 1.00984, 1.00984, 0.0540986, 0.0540986, 0.0540986, 0.0540986, 0.0547504, 0.0547504, 0.0547504, 0.0547504, 0.0540986, 0.0540986, 0.0540986, 0.0540986, 0.0544226, 0.115778, 0.115778, 0.115778, 0.122819, 0.115045, 0.224409, 0.224409, 0.224409, 0.128916, 0.221672, 0.221672, 0.284018, 0.284018, 0.284018, 0.284018, 0.121994, 0.121181, 0.121181, 0.197578, 0.0496643, 0.0496643, 0.0531495, 0.0531495, 0.0531495, 0.0531495, 0.048602, 0.113607, 0.227214, 0.227214, 0.122819, 0.122819, 0.131718, 0.131718, 0.110836, 0.0951683, 0.0951683, 0.0951683, 0.0998744, 0.0993286, 0.100426, 0.0895426, 0.0895426, 0.127113, 0.128008, 0.0956691, 0.0972039, 0.086972, 0.0841534, 0.0841534, 0.0853387, 0.0853387, 0.0853387, 0.118805, 0.118805, 0.0833814, 0.0830006, 0.0833814, 0.115045, 0.115778, 0.088669, 0.088669, 0.0882385, 0.0878123, 0.088669, 0.0800755, 0.0800755, 0.0797243, 0.108197, 0.108197, 0.0770218, 0.0770218, 0.105681, 0.105681, 0.0766968, 0.0770218, 0.0766968, 0.0763745, 0.0744965, 0.0744965, 0.074803, 0.0751121, 0.074803, 0.0744965, 0.0908857, 0.0908857, 0.0908857, 0.0908857, 0.0972039, 0.0721315, 0.0718464, 0.0721315, 0.0718464, 0.0715635, 0.0699121, 0.0699121, 0.0688528, 0.0688528, 0.0688528, 0.0688528, 0.0688528, 0.0688528, 0.0688528, 0.0688528, 0.068593, 0.0683351, 0.0668277, 0.0668277, 0.0811479, 0.0811479, 0.0811479, 0.0811479, 0.0797243, 0.0797243, 0.0797243, 0.0797243, 0.0783497, 0.0783497, 0.0783497, 0.0783497, 0.0770218, 0.0770218, 0.0770218, 0.0770218, 0.0626798, 0.0626798, 0.0622505, 0.0622505, 0.0744965, 0.0744965, 0.0744965, 0.0744965, 0.0609971, 0.0609971, 0.0616174, 0.0614093, 0.0597932, 0.0597932, 0.0597932, 0.0597932, 0.0597932, 0.0597932, 0.0597932, 0.0597932, 0.0699121, 0.0699121, 0.0699121, 0.0699121, 0.0688528, 0.0688528, 0.0688528, 0.0688528, 0.0568036, 0.0568036, 0.0568036, 0.0568036, 0.0568036, 0.0568036, 0.0568036, 0.0568036, 0.0554181, 0.0554181, 0.0554181, 0.0554181, 0.0554181, 0.0554181, 0.0554181, 0.0554181, 0.064004, 0.064004, 0.064004, 0.064004, 0.0537785, 0.0537785, 0.0542601, 0.0540986, 0.0528405, 0.0528405, 0.0528405, 0.0528405, 0.0528405, 0.0528405, 0.0528405, 0.0528405, 0.0605905, 0.0605905, 0.0605905, 0.0605905, 0.0513478, 0.0513478, 0.0510594, 0.0510594, 0.0504921, 0.0504921, 0.0504921, 0.0504921, 0.0504921, 0.0504921, 0.0504921, 0.0504921, 0.0493944, 0.0493944, 0.0493944, 0.0493944
0.197578, 0.197578, 0.17478, 0.17478, 0.17478, 0.17478, 0.035227, 0.035227, 0.242362, 0.211362, 0.0344264, 0.0344264, 0.189345, 0.219002, 0.219002, 0.195453, 0.151476, 0.151476, 0.179972, 0.178207, 0.142009, 0.142009, 0.0658592, 0.0658592, 0.121181, 0.121181, 0.144263, 0.144263, 0.104466, 0.104466, 0.145417, 0.14659, 0.122819, 0.122819, 0.124501, 0.124501, 0.154044, 0.154044, 0.15536, 0.156699, 0.118033, 0.118033, 0.11652, 0.11652, 0.118033, 0.118033, 0.166763, 0.0927405, 0.0932161, 0.0936966, 0.119586, 0.119586, 0.119586, 0.119586, 0.0993286, 0.187393, 0.181771, 0.181771, 0.185481, 0.185481, 0.105681, 0.105681, 0.105681, 0.105681, 0.104466, 0.302952, 0.201968, 0.201968, 0.206558, 0.206558, 0.206558, 0.206558, 0.133655, 0.133655, 0.108845, 0.363543, 0.363543, 0.386748, 0.239173, 0.239173, 0.239173, 0.239173, 0.239173, 0.239173, 0.25246, 0.25246, 0.25246, 0.25246, 0.121994, 0.121994, 0.336614, 0.336614, 0.0882385, 0.0882385, 0.0882385, 0.0882385, 0.106924, 0.106924, 0.454428, 0.454428, 0.0966869, 0.0966869, 0.37869, 0.37869, 0.0936966, 0.0936966, 0.0936966, 0.0936966, 0.37869, 0.37869, 0.137706, 0.137706, 0.0547504, 0.0547504, 0.0547504, 0.0547504, 0.605905, 0.605905, 0.865578, 3.02952, 0.605905, 0.605905, 1.00984, 1.00984, 0.0540986, 0.0540986, 0.0540986, 0.0540986, 0.0547504, 0.0547504, 0.0547504, 0.0547504, 0.0540986, 0.0540986, 0.0540986, 0.0540986, 0.0540986, 0.108845, 0.108845, 0.0488633, 0.108845, 0.110836, 0.151476, 0.103869, 0.151476, 0.102696, 0.221672, 0.221672, 0.284018, 0.284018, 0.284018, 0.284018, 0.0987888, 0.201968, 0.0977265, 0.0972039, 0.0496643, 0.0496643, 0.0531495, 0.0531495, 0.0531495, 0.0531495, 0.239173, 0.181771, 0.227214, 0.227214, 0.122819, 0.122819, 0.131718, 0.131718, 0.0908857, 0.0908857, 0.0908857, 0.0908857, 0.0908857, 0.0987888, 0.0982548, 0.0427697, 0.123654, 0.0966869, 0.0961753, 0.0956691, 0.0951683, 0.119586, 0.0841534, 0.0841534, 0.043695, 0.0438003, 0.0439061, 0.0440124, 0.0913424, 0.0908857, 0.0904335, 0.0444429, 0.111516, 0.0891036, 0.088669, 0.0882385, 0.0878123, 0.108197, 0.0452168, 0.106924, 0.0454428, 0.0455567, 0.0456712, 0.0457862, 0.0770218, 0.0770218, 0.0461349, 0.0462523, 0.0463703, 0.0464888, 0.046608, 0.0467279, 0.0744965, 0.0744965, 0.047091, 0.0472133, 0.0473363, 0.0474599, 0.0908857, 0.0908857, 0.0908857, 0.0908857, 0.0727086, 0.0776801, 0.0773495, 0.0927405, 0.0922697, 0.0487323, 0.0699121, 0.0699121, 0.0688528, 0.0688528, 0.0688528, 0.0688528, 0.0688528, 0.0688528, 0.0688528, 0.0688528, 0.086972, 0.0503522, 0.0668277, 0.0668277, 0.0811479, 0.0811479, 0.0811479, 0.0811479, 0.0797243, 0.0797243, 0.0797243, 0.0797243, 0.0783497, 0.0783497, 0.0783497, 0.0783497, 0.0770218, 0.0770218, 0.0770218, 0.0770218, 0.0626798, 0.0626798, 0.0622505, 0.0622505, 0.0744965, 0.0744965, 0.0744965, 0.0744965, 0.0609971, 0.0609971, 0.0547504, 0.0549158, 0.0597932, 0.0597932, 0.0597932, 0.0597932, 0.0597932, 0.0597932, 0.0597932, 0.0597932, 0.0699121, 0.0699121, 0.0699121, 0.0699121, 0.0688528, 0.0688528, 0.0688528, 0.0688528, 0.0568036, 0.0568036, 0.0568036, 0.0568036, 0.0568036, 0.0568036, 0.0568036, 0.0568036, 0.0554181, 0.0554181, 0.0554181, 0.0554181, 0.0554181, 0.0554181, 0.0554181, 0.0554181, 0.064004, 0.064004, 0.064004, 0.064004, 0.0537785, 0.0537785, 0.0622505, 0.0624644, 0.0528405, 0.0528405, 0.0528405, 0.0528405, 0.0528405, 0.0528405, 0.0528405, 0.0528405, 0.0605905, 0.0605905, 0.0605905, 0.0605905, 0.0513478, 0.0513478, 0.0510594, 0.0510594, 0.0504921, 0.0504921, 0.0504921, 0.0504921, 0.0504921, 0.0504921, 0.0504921, 0.0504921, 0.0493944, 0.0493944, 0.0493944, 0.0493944
0.826234, 0.865578, 0.034956, 0.034956, 0.034956, 0.183607, 0.183607, 0.183607, 0.181771, 0.181771, 0.206558, 0.0398621, 0.197578, 0.189345, 0.216395, 0.216395, 0.176477, 0.0506327, 0.0454428, 0.0454428, 0.156699, 0.156699, 0.103279, 0.103279, 0.103279, 0.103279, 0.103279, 0.103279, 0.103279, 0.103279, 0.154044, 0.154044, 0.151476, 0.10507, 0.154044, 0.154044, 0.11652, 0.11652, 0.11652, 0.11652, 0.163758, 0.163758, 0.163758, 0.171482, 0.171482, 0.171482, 0.171482, 0.112901, 0.189345, 0.189345, 0.193374, 0.193374, 0.197578, 0.197578, 0.131718, 0.131718, 0.131718, 0.131718, 0.173116, 0.187393, 0.105681, 0.105681, 0.105681, 0.105681, 0.189345, 0.189345, 0.105681, 0.105681, 0.206558, 0.206558, 0.206558, 0.206558, 0.313399, 0.313399, 0.208933, 0.221672, 0.221672, 0.224409, 0.0763745, 0.0763745, 0.239173, 0.239173, 0.239173, 0.239173, 0.25246, 0.25246, 0.25246, 0.25246, 0.478346, 0.478346, 0.106924, 0.106924, 0.478346, 0.478346, 0.288526, 0.0649184, 0.0653854, 0.0653854, 0.727086, 0.115778, 0.0658592, 0.0660987, 0.0668277, 0.0668277, 0.0668277, 0.0668277, 0.34956, 0.356414, 0.699121, 0.699121, 0.908857, 0.908857, 0.0547504, 0.0547504, 0.0547504, 0.0547504, 9.08857, 9.08857, 4.54428, 4.54428, 0.0710044, 0.0712829, 2.27214, 2.27214, 0.0540986, 0.0540986, 0.0540986, 0.0540986, 0.0727086, 0.0730006, 1.51476, 1.65247, 0.0540986, 0.0540986, 0.0540986, 0.0540986, 0.324592, 0.227214, 0.0439061, 0.0439061, 0.156699, 0.138757, 0.271301, 0.147782, 0.147782, 0.147782, 0.216395, 0.216395, 0.144263, 0.143127, 0.142009, 0.140908, 0.139824, 0.138757, 0.0564507, 0.0564507, 0.13565, 0.13565, 0.133655, 0.13268, 0.131718, 0.130771, 0.131718, 0.128916, 0.128008, 0.12536, 0.12536, 0.127113, 0.124501, 0.12536, 0.12536, 0.0895426, 0.0891036, 0.0433822, 0.043486, 0.0435903, 0.043695, 0.043695, 0.0439061, 0.0439061, 0.0441193, 0.0441193, 0.0895426, 0.0878123, 0.0841534, 0.0446613, 0.0447713, 0.0448818, 0.0449929, 0.0449929, 0.0452168, 0.0452168, 0.0454428, 0.0454428, 0.0456712, 0.0456712, 0.0459019, 0.0460181, 0.0461349, 0.0462523, 0.0463703, 0.0463703, 0.046608, 0.046608, 0.0468483, 0.0468483, 0.047091, 0.047091, 0.0473363, 0.0473363, 0.0475841, 0.0475841, 0.0478346, 0.0478346, 0.0480877, 0.0480877, 0.0483435, 0.0483435, 0.048602, 0.048602, 0.0908857, 0.0908857, 0.0908857, 0.0908857, 0.0493944, 0.0493944, 0.0496643, 0.0496643, 0.0499372, 0.0499372, 0.0502131, 0.0502131, 0.0688528, 0.0688528, 0.0688528, 0.0688528, 0.0688528, 0.0688528, 0.0688528, 0.0688528, 0.0516396, 0.0516396, 0.0519347, 0.0520835, 0.0811479, 0.0811479, 0.0811479, 0.0811479, 0.0797243, 0.0797243, 0.0797243, 0.0797243, 0.0783497, 0.0783497, 0.0783497, 0.0783497, 0.0770218, 0.0770218, 0.0770218, 0.0770218, 0.0547504, 0.0549158, 0.0550822, 0.0550822, 0.0744965, 0.0744965, 0.0744965, 0.0744965, 0.0561023, 0.0561023, 0.0564507, 0.0564507, 0.0597932, 0.0597932, 0.0597932, 0.0597932, 0.0597932, 0.0597932, 0.0597932, 0.0597932, 0.0699121, 0.0699121, 0.0699121, 0.0699121, 0.0688528, 0.0688528, 0.0688528, 0.0688528, 0.0568036, 0.0568036, 0.0568036, 0.0568036, 0.0568036, 0.0568036, 0.0568036, 0.0568036, 0.0554181, 0.0554181, 0.0554181, 0.0554181, 0.0554181, 0.0554181, 0.0554181, 0.0554181, 0.064004, 0.064004, 0.064004, 0.064004, 0.0547504, 0.0533054, 0.0644579, 0.0646873, 0.0528405, 0.0528405, 0.0528405, 0.0528405, 0.0528405, 0.0528405, 0.0528405, 0.0528405, 0.0605905, 0.0605905, 0.0605905, 0.0605905, 0.0678251, 0.0678251, 0.0683351, 0.068593, 0.0504921, 0.0504921, 0.0504921, 0.0504921, 0.0504921, 0.0504921, 0.0504921, 0.0504921, 0.0493944, 0.0493944, 0.0493944, 0.0493944
0.0382677, 0.318897, 0.275411, 0.279648, 0.187393, 0.197578, 0.206558, 0.206558, 0.206558, 0.213849, 0.213849, 0.197578, 0.201968, 0.197578, 0.197578, 0.0503522, 0.0504921, 0.178207, 0.0454428, 0.0454428, 0.156699, 0.156699, 0.103279, 0.103279, 0.103279, 0.103279, 0.103279, 0.103279, 0.103279, 0.103279, 0.154044, 0.154044, 0.139824, 0.138757, 0.154044, 0.154044, 0.11652, 0.11652, 0.11652, 0.11652, 0.152749, 0.151476, 0.151476, 0.193374, 0.171482, 0.171482, 0.16988, 0.16988, 0.189345, 0.189345, 0.193374, 0.193374, 0.197578, 0.197578, 0.131718, 0.131718, 0.131718, 0.131718, 0.236067, 0.236067, 0.105681, 0.105681, 0.105681, 0.105681, 0.191338, 0.189345, 0.105681, 0.105681, 0.206558, 0.206558, 0.206558, 0.206558, 0.313399, 0.313399, 0.148993, 0.219002, 0.110836, 0.221672, 0.0763745, 0.0763745, 0.239173, 0.239173, 0.239173, 0.239173, 0.25246, 0.25246, 0.25246, 0.25246, 0.478346, 0.478346, 0.106924, 0.106924, 0.478346, 0.478346, 0.288526, 0.288526, 0.0653854, 0.0653854, 1.13607, 1.13607, 0.0658592, 0.0660987, 0.0668277, 0.0668277, 0.0668277, 0.0668277, 0.0673227, 0.067573, 0.699121, 0.699121, 0.908857, 0.908857, 0.0547504, 0.0547504, 0.0547504, 0.0547504, 9.08857, 9.08857, 4.54428, 4.54428, 0.0710044, 0.0712829, 2.27214, 2.27214, 0.0540986, 0.0540986, 0.0540986, 0.0540986, 0.0732949, 0.0735917, 0.0732949, 0.826234, 0.0540986, 0.0540986, 0.0540986, 0.0540986, 0.0536199, 0.0536199, 0.0439061, 0.0439061, 0.152749, 0.0544226, 0.0544226, 0.0544226, 0.148993, 0.0542601, 0.216395, 0.216395, 0.140908, 0.140908, 0.140908, 0.140908, 0.137706, 0.137706, 0.0564507, 0.0564507, 0.13565, 0.13565, 0.206558, 0.0573411, 0.0566266, 0.0566266, 0.127113, 0.127113, 0.127113, 0.0577052, 0.0577052, 0.0577052, 0.0531495, 0.0961753, 0.0441193, 0.0442266, 0.0443345, 0.0433822, 0.043486, 0.0435903, 0.043695, 0.043695, 0.0439061, 0.0439061, 0.0441193, 0.0441193, 0.0443345, 0.0444429, 0.0445518, 0.0446613, 0.0447713, 0.0448818, 0.0449929, 0.0449929, 0.0452168, 0.0452168, 0.0454428, 0.0454428, 0.0456712, 0.0456712, 0.0459019, 0.0460181, 0.0461349, 0.0462523, 0.0463703, 0.0463703, 0.046608, 0.046608, 0.0468483, 0.0468483, 0.047091, 0.047091, 0.0473363, 0.0473363, 0.0475841, 0.0475841, 0.0478346, 0.0478346, 0.0480877, 0.0480877, 0.0483435, 0.0483435, 0.048602, 0.048602, 0.0908857, 0.0908857, 0.0908857, 0.0908857, 0.0493944, 0.0493944, 0.0496643, 0.0496643, 0.0499372, 0.0499372, 0.0502131, 0.0502131, 0.0688528, 0.0688528, 0.0688528, 0.0688528, 0.0688528, 0.0688528, 0.0688528, 0.0688528, 0.0516396, 0.0516396, 0.0519347, 0.0520835, 0.0811479, 0.0811479, 0.0811479, 0.0811479, 0.0797243, 0.0797243, 0.0797243, 0.0797243, 0.0783497, 0.0783497, 0.0783497, 0.0783497, 0.0770218, 0.0770218, 0.0770218, 0.0770218, 0.0547504, 0.0549158, 0.0550822, 0.0550822, 0.0744965, 0.0744965, 0.0744965, 0.0744965, 0.0561023, 0.0561023, 0.0564507, 0.0564507, 0.0597932, 0.0597932, 0.0597932, 0.0597932, 0.0597932, 0.0597932, 0.0597932, 0.0597932, 0.0699121, 0.0699121, 0.0699121, 0.0699121, 0.0688528, 0.0688528, 0.0688528, 0.0688528, 0.0568036, 0.0568036, 0.0568036, 0.0568036, 0.0568036, 0.0568036, 0.0568036, 0.0568036, 0.0554181, 0.0554181, 0.0554181, 0.0554181, 0.0554181, 0.0554181, 0.0554181, 0.0554181, 0.064004, 0.064004, 0.064004, 0.064004, 0.064004, 0.0642302, 0.0644579, 0.0646873, 0.0528405, 0.0528405, 0.0528405, 0.0528405, 0.0528405, 0.0528405, 0.0528405, 0.0528405, 0.0605905, 0.0605905, 0.0605905, 0.0605905, 0.0678251, 0.0678251, 0.0683351, 0.068593, 0.0504921, 0.0504921, 0.0504921, 0.0504921, 0.0504921, 0.0504921, 0.0504921, 0.0504921, 0.0493944, 0.0493944, 0.0493944, 0.0493944
0.239173, 0.239173, 0.221672, 0.221672, 0.221672, 0.221672, 0.201968, 0.224409, 0.206558, 0.201968, 0.211362, 0.211362, 0.211362, 0.189345, 0.0614093, 0.0614093, 0.168307, 0.168307, 0.168307, 0.168307, 0.119586, 0.119586, 0.119586, 0.119586, 0.106299, 0.100984, 0.110836, 0.110836, 0.11652, 0.11652, 0.0932161, 0.0936966, 0.11652, 0.11652, 0.106299, 0.10507, 0.0956691, 0.0961753, 0.0966869, 0.0972039, 0.168307, 0.168307, 0.122819, 0.122819, 0.12623, 0.12623, 0.112205, 0.112901, 0.129837, 0.129837, 0.103279, 0.115778, 0.104466, 0.10507, 0.100984, 0.100984, 0.10507, 0.131718, 0.0882385, 0.0882385, 0.0882385, 0.267311, 0.29318, 0.29318, 0.108197, 0.108197, 0.108197, 0.108197, 0.110836, 0.110836, 0.110836, 0.110836, 0.336614, 0.336614, 0.14659, 0.14659, 0.0710044, 0.0710044, 0.111516, 0.0977265, 0.0987888, 0.0987888, 0.0987888, 0.0987888, 0.395155, 0.403936, 0.37869, 0.37869, 0.105681, 0.105681, 0.105681, 0.105681, 0.13268, 0.504921, 1.13607, 1.13607, 0.113607, 0.113607, 1.39824, 1.51476, 0.0873901, 0.0873901, 0.0873901, 0.0873901, 0.119586, 0.119586, 2.27214, 2.27214, 3.02952, 3.02952, 1.29837, 1.29837, 1.29837, 1.29837, 0.118033, 0.118033, 0.0663399, 0.0663399, 2.27214, 2.27214, 0.0547504, 0.0547504, 0.0547504, 0.0547504, 1.51476, 1.13607, 0.699121, 0.699121, 0.649184, 0.649184, 0.649184, 0.649184, 0.605905, 0.605905, 0.0534622, 0.0534622, 0.0534622, 0.0534622, 0.288526, 0.242362, 0.239173, 0.13565, 0.143127, 0.143127, 0.143127, 0.143127, 0.143127, 0.213849, 0.127113, 0.127113, 0.211362, 0.208933, 0.201968, 0.201968, 0.0561023, 0.0561023, 0.0561023, 0.0561023, 0.0573411, 0.0573411, 0.046608, 0.046608, 0.046608, 0.113607, 0.0449929, 0.0449929, 0.122819, 0.0473363, 0.0473363, 0.0932161, 0.0441193, 0.0441193, 0.0441193, 0.0441193, 0.0454428, 0.0454428, 0.0582601, 0.0582601, 0.0582601, 0.0582601, 0.0590167, 0.0590167, 0.0590167, 0.0590167, 0.0597932, 0.0597932, 0.0597932, 0.0597932, 0.0605905, 0.0605905, 0.0605905, 0.0605905, 0.0461349, 0.0462523, 0.0478346, 0.0478346, 0.0815118, 0.047091, 0.047091, 0.047091, 0.0631151, 0.0631151, 0.0631151, 0.0631151, 0.064004, 0.064004, 0.064004, 0.064004, 0.0649184, 0.0649184, 0.0649184, 0.0649184, 0.0658592, 0.0658592, 0.0658592, 0.0658592, 0.0668277, 0.0668277, 0.0668277, 0.0668277, 0.0678251, 0.0678251, 0.0678251, 0.0678251, 0.0688528, 0.0688528, 0.0688528, 0.0688528, 0.0699121, 0.0699121, 0.0699121, 0.0699121, 0.0688528, 0.0688528, 0.0688528, 0.0688528, 0.0688528, 0.0688528, 0.0688528, 0.0688528, 0.0732949, 0.0732949, 0.0732949, 0.0732949, 0.0744965, 0.0744965, 0.0744965, 0.0744965, 0.0557581, 0.0557581, 0.0561023, 0.0561023, 0.0770218, 0.0770218, 0.0770218, 0.0770218, 0.0783497, 0.0783497, 0.0783497, 0.0783497, 0.0797243, 0.0797243, 0.0797243, 0.0797243, 0.0811479, 0.0811479, 0.0811479, 0.0811479, 0.0826234, 0.0826234, 0.0826234, 0.0826234, 0.0597932, 0.0597932, 0.0597932, 0.0597932, 0.0597932, 0.0597932, 0.0597932, 0.0597932, 0.0873901, 0.0873901, 0.0873901, 0.0873901, 0.0626798, 0.0626798, 0.0631151, 0.0631151, 0.0568036, 0.0568036, 0.0568036, 0.0568036, 0.0568036, 0.0568036, 0.0568036, 0.0568036, 0.0554181, 0.0554181, 0.0554181, 0.0554181, 0.0554181, 0.0554181, 0.0554181, 0.0554181, 0.0987888, 0.0987888, 0.0987888, 0.0987888, 0.100984, 0.100984, 0.100984, 0.100984, 0.0528405, 0.0528405, 0.0528405, 0.0528405, 0.0528405, 0.0528405, 0.0528405, 0.0528405, 0.108197, 0.108197, 0.108197, 0.108197, 0.110836, 0.110836, 0.110836, 0.110836, 0.0504921, 0.0504921, 0.0504921, 0.0504921, 0.0504921, 0.0504921, 0.0504921, 0.0504921, 0.0493944, 0.0493944, 0.0493944, 0.0493944
0.239173, 0.239173, 0.221672, 0.221672, 0.221672, 0.221672, 0.239173, 0.242362, 0.206558, 0.206558, 0.206558, 0.206558, 0.206558, 0.208933, 0.0614093, 0.0614093, 0.168307, 0.168307, 0.168307, 0.168307, 0.119586, 0.119586, 0.119586, 0.119586, 0.107557, 0.107557, 0.110836, 0.110836, 0.11652, 0.11652, 0.108845, 0.0857412, 0.11652, 0.11652, 0.10507, 0.10507, 0.112901, 0.114322, 0.0797243, 0.0891036, 0.168307, 0.168307, 0.122819, 0.122819, 0.12623, 0.12623, 0.122819, 0.121181, 0.129837, 0.129837, 0.12536, 0.12536, 0.12536, 0.130771, 0.100984, 0.100984, 0.249002, 0.25246, 0.249002, 0.107557, 0.107557, 0.108197, 0.29318, 0.29318, 0.108197, 0.108197, 0.108197, 0.108197, 0.110836, 0.110836, 0.110836, 0.110836, 0.336614, 0.336614, 0.117272, 0.313399, 0.0710044, 0.0710044, 0.121181, 0.121181, 0.0987888, 0.0987888, 0.0987888, 0.0987888, 0.395155, 0.127113, 0.37869, 0.37869, 0.105681, 0.105681, 0.105681, 0.105681, 0.13268, 0.133655, 1.13607, 1.13607, 0.113607, 0.113607, 9.08857, 18.1771, 0.0873901, 0.0873901, 0.0873901, 0.0873901, 0.119586, 0.119586, 2.27214, 2.27214, 3.02952, 3.02952, 1.29837, 1.29837, 1.29837, 1.29837, 0.118033, 0.118033, 0.0663399, 0.0663399, 2.27214, 2.27214, 0.0547504, 0.0547504, 0.0547504, 0.0547504, 0.757381, 0.727086, 0.699121, 0.699121, 0.649184, 0.649184, 0.504921, 0.491274, 0.478346, 0.356414, 0.0534622, 0.0534622, 0.23304, 0.23304, 0.288526, 0.23304, 0.0542601, 0.23304, 0.0537785, 0.0537785, 0.0540986, 0.0537785, 0.103869, 0.0459019, 0.0459019, 0.0459019, 0.208933, 0.208933, 0.201968, 0.201968, 0.0561023, 0.0561023, 0.0561023, 0.0561023, 0.0564507, 0.0475841, 0.0475841, 0.0468483, 0.0966869, 0.0961753, 0.0449929, 0.0449929, 0.114322, 0.0941821, 0.112901, 0.0452168, 0.0452168, 0.0452168, 0.0452168, 0.0453295, 0.0454428, 0.0454428, 0.0582601, 0.0582601, 0.0582601, 0.0582601, 0.0590167, 0.0590167, 0.0590167, 0.0590167, 0.0597932, 0.0597932, 0.0597932, 0.0597932, 0.0605905, 0.0605905, 0.0605905, 0.0605905, 0.047709, 0.047709, 0.0478346, 0.0478346, 0.0480877, 0.0482152, 0.0483435, 0.0484724, 0.0631151, 0.0631151, 0.0631151, 0.0631151, 0.064004, 0.064004, 0.064004, 0.064004, 0.0649184, 0.0649184, 0.0649184, 0.0649184, 0.0658592, 0.0658592, 0.0658592, 0.0658592, 0.0668277, 0.0668277, 0.0668277, 0.0668277, 0.0678251, 0.0678251, 0.0678251, 0.0678251, 0.0688528, 0.0688528, 0.0688528, 0.0688528, 0.0699121, 0.0699121, 0.0699121, 0.0699121, 0.0688528, 0.0688528, 0.0688528, 0.0688528, 0.0688528, 0.0688528, 0.0688528, 0.0688528, 0.0732949, 0.0732949, 0.0732949, 0.0732949, 0.0744965, 0.0744965, 0.0744965, 0.0744965, 0.0557581, 0.0557581, 0.0561023, 0.0561023, 0.0770218, 0.0770218, 0.0770218, 0.0770218, 0.0783497, 0.0783497, 0.0783497, 0.0783497, 0.0797243, 0.0797243, 0.0797243, 0.0797243, 0.0811479, 0.0811479, 0.0811479, 0.0811479, 0.0826234, 0.0826234, 0.0826234, 0.0826234, 0.0597932, 0.0597932, 0.0597932, 0.0597932, 0.0597932, 0.0597932, 0.0597932, 0.0597932, 0.0873901, 0.0873901, 0.0873901, 0.0873901, 0.0626798, 0.0626798, 0.0631151, 0.0631151, 0.0568036, 0.0568036, 0.0568036, 0.0568036, 0.0568036, 0.0568036, 0.0568036, 0.0568036, 0.0554181, 0.0554181, 0.0554181, 0.0554181, 0.0554181, 0.0554181, 0.0554181, 0.0554181, 0.0987888, 0.0987888, 0.0987888, 0.0987888, 0.100984, 0.100984, 0.100984, 0.100984, 0.0528405, 0.0528405, 0.0528405, 0.0528405, 0.0528405, 0.0528405, 0.0528405, 0.0528405, 0.108197, 0.108197, 0.108197, 0.108197, 0.110836, 0.110836, 0.110836, 0.110836, 0.0504921, 0.0504921, 0.0504921, 0.0504921, 0.0504921, 0.0504921, 0.0504921, 0.0504921, 0.0493944, 0.0493944, 0.0493944, 0.0493944
0.826234, 1.00984, 0.826234, 0.288526, 0.288526, 0.23009, 0.227214, 0.227214, 0.0480877, 0.0480877, 0.189345, 0.189345, 0.189345, 0.189345, 0.189345, 0.189345, 0.168307, 0.168307, 0.168307, 0.168307, 0.119586, 0.119586, 0.119586, 0.119586, 0.121181, 0.121181, 0.193374, 0.193374, 0.0849399, 0.0849399, 0.0849399, 0.0849399, 0.0865578, 0.0865578, 0.088669, 0.088669, 0.23304, 0.23304, 0.206558, 0.206558, 0.178207, 0.178207, 0.211362, 0.211362, 0.239173, 0.239173, 0.239173, 0.239173, 0.23009, 0.23304, 0.0936966, 0.0936966, 0.0811479, 0.0811479, 0.302952, 0.302952, 0.0849399, 0.0849399, 0.0998744, 0.313399, 0.104466, 0.104466, 0.100426, 0.103279, 0.108197, 0.108197, 0.108197, 0.108197, 0.110836, 0.110836, 0.110836, 0.110836, 0.102119, 0.102119, 0.102119, 0.102119, 0.0927405, 0.0927405, 0.757381, 0.757381, 0.0987888, 0.0987888, 0.0987888, 0.0987888, 0.0597932, 0.0597932, 0.826234, 0.826234, 0.105681, 0.105681, 0.105681, 0.105681, 1.81771, 1.81771, 1.81771, 1.81771, 0.0622505, 0.0622505, 0.0622505, 0.0622505, 0.0873901, 0.0873901, 0.0873901, 0.0873901, 0.0658592, 0.0658592, 6.05905, 0.0631151, 4.54428, 0.865578, 0.826234, 4.54428, 0.144263, 9.08857, 1.51476, 1.51476, 0.11652, 0.11652, 0.0857412, 0.0857412, 0.0547504, 0.0547504, 0.0547504, 0.0547504, 0.0568036, 0.0568036, 0.534622, 0.534622, 0.422724, 0.413117, 0.0554181, 0.0554181, 0.46608, 0.0550822, 0.284018, 0.284018, 0.12536, 0.12536, 0.12536, 0.12536, 0.115778, 0.10507, 0.104466, 0.103869, 0.127113, 0.102696, 0.102119, 0.101548, 0.118033, 0.122819, 0.0998744, 0.0993286, 0.120378, 0.114322, 0.13667, 0.13565, 0.152749, 0.110164, 0.110164, 0.110164, 0.0946726, 0.0941821, 0.101548, 0.0932161, 0.0568036, 0.0568036, 0.115778, 0.0913424, 0.114322, 0.0977265, 0.056276, 0.056276, 0.0449929, 0.0449929, 0.0582601, 0.0582601, 0.0582601, 0.0582601, 0.0582601, 0.0582601, 0.0590167, 0.0590167, 0.0590167, 0.0590167, 0.0597932, 0.0597932, 0.0597932, 0.0597932, 0.0605905, 0.0605905, 0.0605905, 0.0605905, 0.061827, 0.061827, 0.0622505, 0.0622505, 0.047709, 0.0478346, 0.0631151, 0.0631151, 0.0631151, 0.0631151, 0.0631151, 0.0631151, 0.064004, 0.064004, 0.064004, 0.064004, 0.0649184, 0.0649184, 0.0649184, 0.0649184, 0.0658592, 0.0658592, 0.0658592, 0.0658592, 0.0668277, 0.0668277, 0.0668277, 0.0668277, 0.0678251, 0.0678251, 0.0678251, 0.0678251, 0.0688528, 0.0688528, 0.0688528, 0.0688528, 0.0699121, 0.0699121, 0.0699121, 0.0699121, 0.0688528, 0.0688528, 0.0688528, 0.0688528, 0.0688528, 0.0688528, 0.0688528, 0.0688528, 0.0732949, 0.0732949, 0.0732949, 0.0732949, 0.0744965, 0.0744965, 0.0744965, 0.0744965, 0.0763745, 0.0763745, 0.0744965, 0.0559297, 0.0770218, 0.0770218, 0.0770218, 0.0770218, 0.0783497, 0.0783497, 0.0783497, 0.0783497, 0.0797243, 0.0797243, 0.0797243, 0.0797243, 0.0811479, 0.0811479, 0.0811479, 0.0811479, 0.0826234, 0.0826234, 0.0826234, 0.0826234, 0.0597932, 0.0597932, 0.0597932, 0.0597932, 0.0597932, 0.0597932, 0.0597932, 0.0597932, 0.0873901, 0.0873901, 0.0873901, 0.0873901, 0.0899858, 0.0899858, 0.0624644, 0.0626798, 0.0568036, 0.0568036, 0.0568036, 0.0568036, 0.0568036, 0.0568036, 0.0568036, 0.0568036, 0.0554181, 0.0554181, 0.0554181, 0.0554181, 0.0554181, 0.0554181, 0.0554181, 0.0554181, 0.0987888, 0.0987888, 0.0987888, 0.0987888, 0.100984, 0.100984, 0.100984, 0.100984, 0.0528405, 0.0528405, 0.0528405, 0.0528405, 0.0528405, 0.0528405, 0.0528405, 0.0528405, 0.108197, 0.108197, 0.108197, 0.108197, 0.110836, 0.110836, 0.110836, 0.110836, 0.0504921, 0.0504921, 0.0504921, 0.0504921, 0.0504921, 0.0504921, 0.0504921, 0.0504921, 0.0493944, 0.0493944, 0.0493944, 0.0493944
0.318897, 0.318897, 0.324592, 0.34956, 0.356414, 0.221672, 0.227214, 0.227214, 0.0480877, 0.0480877, 0.189345, 0.189345, 0.189345, 0.189345, 0.189345, 0.189345, 0.168307, 0.168307, 0.168307, 0.168307, 0.119586, 0.119586, 0.119586, 0.119586, 0.121181, 0.121181, 0.193374, 0.193374, 0.0849399, 0.0849399, 0.0849399, 0.0849399, 0.0865578, 0.0865578, 0.191338, 0.23009, 0.23304, 0.23304, 0.206558, 0.206558, 0.178207, 0.178207, 0.204238, 0.204238, 0.239173, 0.239173, 0.239173, 0.239173, 0.271301, 0.0891036, 0.0936966, 0.0936966, 0.0811479, 0.0811479, 0.302952, 0.302952, 0.0849399, 0.0849399, 0.249002, 0.249002, 0.104466, 0.104466, 0.103869, 0.363543, 0.108197, 0.108197, 0.108197, 0.108197, 0.110836, 0.110836, 0.110836, 0.110836, 0.102119, 0.102119, 0.102119, 0.102119, 0.0927405, 0.0927405, 0.757381, 0.757381, 0.0987888, 0.0987888, 0.0987888, 0.0987888, 0.0597932, 0.0597932, 0.826234, 0.826234, 0.105681, 0.105681, 0.105681, 0.105681, 1.81771, 1.81771, 1.81771, 1.81771, 0.0622505, 0.0622505, 0.0622505, 0.0622505, 0.0873901, 0.0873901, 0.0873901, 0.0873901, 0.0658592, 0.0658592, 1.21181, 1.06924, 1.06924, 1.06924, 0.865578, 0.826234, 0.0678251, 9.08857, 1.51476, 1.51476, 0.11652, 0.11652, 0.0857412, 0.0857412, 0.0547504, 0.0547504, 0.0547504, 0.0547504, 0.0568036, 0.0568036, 0.534622, 0.534622, 0.284018, 0.279648, 0.0554181, 0.0554181, 0.267311, 0.263437, 0.284018, 0.284018, 0.12536, 0.0525351, 0.0525351, 0.0525351, 0.0525351, 0.0509164, 0.0509164, 0.0509164, 0.134645, 0.102696, 0.111516, 0.0447713, 0.100984, 0.100426, 0.128916, 0.0993286, 0.0987888, 0.0982548, 0.0977265, 0.118033, 0.0966869, 0.0961753, 0.0956691, 0.110164, 0.0946726, 0.0941821, 0.0936966, 0.100984, 0.0568036, 0.0568036, 0.0568036, 0.0568036, 0.0569816, 0.0571608, 0.0573411, 0.0575226, 0.0577052, 0.057889, 0.0582601, 0.0582601, 0.0582601, 0.0582601, 0.0582601, 0.0582601, 0.0590167, 0.0590167, 0.0590167, 0.0590167, 0.0597932, 0.0597932, 0.0597932, 0.0597932, 0.0605905, 0.0605905, 0.0605905, 0.0605905, 0.061827, 0.061827, 0.0622505, 0.0622505, 0.0628967, 0.0628967, 0.0631151, 0.0631151, 0.0631151, 0.0631151, 0.0631151, 0.0631151, 0.064004, 0.064004, 0.064004, 0.064004, 0.0649184, 0.0649184, 0.0649184, 0.0649184, 0.0658592, 0.0658592, 0.0658592, 0.0658592, 0.0668277, 0.0668277, 0.0668277, 0.0668277, 0.0678251, 0.0678251, 0.0678251, 0.0678251, 0.0688528, 0.0688528, 0.0688528, 0.0688528, 0.0699121, 0.0699121, 0.0699121, 0.0699121, 0.0688528, 0.0688528, 0.0688528, 0.0688528, 0.0688528, 0.0688528, 0.0688528, 0.0688528, 0.0732949, 0.0732949, 0.0732949, 0.0732949, 0.0744965, 0.0744965, 0.0744965, 0.0744965, 0.0763745, 0.0763745, 0.0773495, 0.0773495, 0.0770218, 0.0770218, 0.0770218, 0.0770218, 0.0783497, 0.0783497, 0.0783497, 0.0783497, 0.0797243, 0.0797243, 0.0797243, 0.0797243, 0.0811479, 0.0811479, 0.0811479, 0.0811479, 0.0826234, 0.0826234, 0.0826234, 0.0826234, 0.0597932, 0.0597932, 0.0597932, 0.0597932, 0.0597932, 0.0597932, 0.0597932, 0.0597932, 0.0873901, 0.0873901, 0.0873901, 0.0873901, 0.0899858, 0.0899858, 0.0908857, 0.0908857, 0.0568036, 0.0568036, 0.0568036, 0.0568036, 0.0568036, 0.0568036, 0.0568036, 0.0568036, 0.0554181, 0.0554181, 0.0554181, 0.0554181, 0.0554181, 0.0554181, 0.0554181, 0.0554181, 0.0987888, 0.0987888, 0.0987888, 0.0987888, 0.100984, 0.100984, 0.100984, 0.100984, 0.0528405, 0.0528405, 0.0528405, 0.0528405, 0.0528405, 0.0528405, 0.0528405, 0.0528405, 0.108197, 0.108197, 0.108197, 0.108197, 0.110836, 0.110836, 0.110836, 0.110836, 0.0504921, 0.0504921, 0.0504921, 0.0504921, 0.0504921, 0.0504921, 0.0504921, 0.0504921, 0.0493944, 0.0493944, 0.0493944, 0.0493944
0.259673, 0.259673, 0.239173, 0.239173, 0.216395, 0.216395, 0.213849, 0.208933, 0.0721315, 0.0721315, 0.0721315, 0.0721315, 0.0721315, 0.0721315, 0.0721315, 0.0721315, 0.168307, 0.168307, 0.168307, 0.168307, 0.165247, 0.105681, 0.0786889, 0.0786889, 0.0786889, 0.0786889, 0.206558, 0.206558, 0.0811479, 0.0811479, 0.118033, 0.118033, 0.124501, 0.124501, 0.227214, 0.227214, 0.23304, 0.23304, 0.23304, 0.23304, 0.131718, 0.131718, 0.23304, 0.23304, 0.204238, 0.0540986, 0.0542601, 0.0542601, 0.0899858, 0.0899858, 0.0899858, 0.0899858, 0.245637, 0.245637, 0.0918037, 0.0918037, 0.0922697, 0.0927405, 0.0918037, 0.0918037, 0.0977265, 0.0977265, 0.0569816, 0.0571608, 0.0811479, 0.0811479, 0.0811479, 0.0811479, 0.0811479, 0.0811479, 0.0811479, 0.0811479, 0.0987888, 0.0987888, 0.0987888, 0.0987888, 1.29837, 1.29837, 0.0605905, 0.0605905, 0.0605905, 0.0605905, 0.0605905, 0.0605905, 3.02952, 3.02952, 9.08857, 9.08857, 4.54428, 4.54428, 1.51476, 0, 0.0797243, 0.0797243, 0.0797243, 0.0797243, 0.0797243, 0.0797243, 0.0797243, 0.0797243, 0.0797243, 0.0797243, 0.0797243, 0.0797243, 1.51476, 1.51476, 1.13607, 1.13607, 0.0826234, 0.0826234, 0.0826234, 0.0826234, 0.605905, 0.605905, 0.605905, 0.605905, 0.605905, 0.605905, 0.79031, 0.79031, 0.504921, 0.504921, 0.413117, 0.586359, 0.313399, 0.313399, 0.313399, 0.313399, 0.0550822, 0.0550822, 0.263437, 0.308087, 0.0554181, 0.201968, 0.201968, 0.201968, 0.12536, 0.113607, 0.113607, 0.113607, 0.105681, 0.0448818, 0.114322, 0.0528405, 0.0528405, 0.0528405, 0.0455567, 0.0457862, 0.100984, 0.0457862, 0.0998744, 0.0993286, 0.0987888, 0.0982548, 0.0977265, 0.0972039, 0.0966869, 0.0961753, 0.0956691, 0.0951683, 0.0946726, 0.0941821, 0.0936966, 0.100984, 0.056276, 0.056276, 0.056276, 0.056276, 0.0564507, 0.0566266, 0.0575226, 0.0575226, 0.0582601, 0.0582601, 0.0582601, 0.0582601, 0.0590167, 0.0590167, 0.0590167, 0.0590167, 0.0597932, 0.0597932, 0.0597932, 0.0597932, 0.0605905, 0.0605905, 0.0605905, 0.0605905, 0.0614093, 0.0614093, 0.0614093, 0.0614093, 0.061827, 0.061827, 0.0622505, 0.0622505, 0.0631151, 0.0631151, 0.0631151, 0.0631151, 0.0516396, 0.0516396, 0.0516396, 0.0516396, 0.0516396, 0.0516396, 0.0516396, 0.0516396, 0.0658592, 0.0658592, 0.0658592, 0.0658592, 0.0668277, 0.0668277, 0.0668277, 0.0668277, 0.0668277, 0.0668277, 0.0678251, 0.0678251, 0.0688528, 0.0688528, 0.0688528, 0.0688528, 0.0554181, 0.0554181, 0.0554181, 0.0554181, 0.0554181, 0.0554181, 0.0554181, 0.0554181, 0.0568036, 0.0568036, 0.0568036, 0.0568036, 0.0568036, 0.0568036, 0.0568036, 0.0568036, 0.0744965, 0.0744965, 0.0744965, 0.0744965, 0.0757381, 0.0757381, 0.0757381, 0.0757381, 0.0597932, 0.0597932, 0.0597932, 0.0597932, 0.0597932, 0.0597932, 0.0597932, 0.0597932, 0.0614093, 0.0614093, 0.0614093, 0.0614093, 0.0614093, 0.0614093, 0.0614093, 0.0614093, 0.0826234, 0.0826234, 0.0826234, 0.0826234, 0.0841534, 0.0841534, 0.0841534, 0.0841534, 0.0649184, 0.0649184, 0.0649184, 0.0649184, 0.0649184, 0.0649184, 0.0649184, 0.0649184, 0.0668277, 0.0668277, 0.0668277, 0.0668277, 0.0668277, 0.0668277, 0.0668277, 0.0668277, 0.0927405, 0.0927405, 0.0927405, 0.0927405, 0.0918037, 0.0922697, 0.0946726, 0.0946726, 0.0710044, 0.0710044, 0.0710044, 0.0710044, 0.0710044, 0.0710044, 0.0710044, 0.0710044, 0.100984, 0.100984, 0.100984, 0.100984, 0.103279, 0.103279, 0.103279, 0.103279, 0.104466, 0.104466, 0.105681, 0.105681, 0.108197, 0.108197, 0.108197, 0.108197, 0.0783497, 0.0783497, 0.0783497, 0.0783497, 0.0783497, 0.0783497, 0.0783497, 0.0783497, 0.0811479, 0.0811479, 0.0811479, 0.0811479, 0.0811479, 0.0811479, 0.0811479, 0.0811479, 0.122819, 0.122819, 0.122819, 0.122819
0.0472133, 0.259673, 0.239173, 0.239173, 0.216395, 0.216395, 0.0730006, 0.15536, 0.0721315, 0.0721315, 0.0721315, 0.0721315, 0.0721315, 0.0721315, 0.0721315, 0.0721315, 0.168307, 0.168307, 0.168307, 0.168307, 0.0503522, 0.25246, 0.25246, 0.16988, 0.173116, 0.173116, 0.206558, 0.206558, 0.0811479, 0.0811479, 0.118033, 0.118033, 0.124501, 0.124501, 0.227214, 0.227214, 0.23304, 0.23304, 0.23304, 0.23304, 0.131718, 0.131718, 0.23304, 0.23304, 0.122819, 0.123654, 0.123654, 0.0895426, 0.0899858, 0.0899858, 0.0899858, 0.0899858, 0.245637, 0.245637, 0.0918037, 0.0918037, 0.0932161, 0.0936966, 0.0918037, 0.0918037, 0.0977265, 0.0977265, 0.0951683, 0.0951683, 0.0811479, 0.0811479, 0.0811479, 0.0811479, 0.0811479, 0.0811479, 0.0811479, 0.0811479, 0.0987888, 0.0987888, 0.0987888, 0.0987888, 1.29837, 1.29837, 0.0605905, 0.0605905, 0.0605905, 0.0605905, 0.0605905, 0.0605905, 3.02952, 3.02952, 9.08857, 9.08857, 4.54428, 4.54428, 4.54428, 6.05905, 0.0797243, 0.0797243, 0.0797243, 0.0797243, 0.0797243, 0.0797243, 0.0797243, 0.0797243, 0.0797243, 0.0797243, 0.0797243, 0.0797243, 1.81771, 1.65247, 1.13607, 1.13607, 0.0826234, 0.0826234, 0.0826234, 0.0826234, 0.605905, 0.605905, 0.605905, 0.605905, 0.605905, 0.605905, 0.757381, 0.727086, 0.504921, 0.504921, 0.649184, 0.626798, 0.313399, 0.313399, 0.313399, 0.313399, 0.0550822, 0.0550822, 0.249002, 0.249002, 0.236067, 0.236067, 0.199749, 0.199749, 0.117272, 0.107557, 0.106924, 0.0443345, 0.0528405, 0.0528405, 0.0528405, 0.0528405, 0.0529946, 0.0531495, 0.0533054, 0.0469693, 0.0469693, 0.0469693, 0.0469693, 0.0993286, 0.0457862, 0.0549158, 0.0549158, 0.0549158, 0.0479608, 0.0479608, 0.0557581, 0.0557581, 0.0557581, 0.0557581, 0.0559297, 0.048995, 0.048995, 0.048995, 0.0571608, 0.0571608, 0.0571608, 0.0571608, 0.0575226, 0.0575226, 0.0582601, 0.0582601, 0.0582601, 0.0582601, 0.0590167, 0.0590167, 0.0590167, 0.0590167, 0.0597932, 0.0597932, 0.0597932, 0.0597932, 0.0605905, 0.0605905, 0.0605905, 0.0605905, 0.0614093, 0.0614093, 0.0614093, 0.0614093, 0.061827, 0.061827, 0.0622505, 0.0622505, 0.0631151, 0.0631151, 0.0631151, 0.0631151, 0.0516396, 0.0516396, 0.0516396, 0.0516396, 0.0516396, 0.0516396, 0.0516396, 0.0516396, 0.0658592, 0.0658592, 0.0658592, 0.0658592, 0.0668277, 0.0668277, 0.0668277, 0.0668277, 0.0670743, 0.0673227, 0.0678251, 0.0678251, 0.0688528, 0.0688528, 0.0688528, 0.0688528, 0.0554181, 0.0554181, 0.0554181, 0.0554181, 0.0554181, 0.0554181, 0.0554181, 0.0554181, 0.0568036, 0.0568036, 0.0568036, 0.0568036, 0.0568036, 0.0568036, 0.0568036, 0.0568036, 0.0744965, 0.0744965, 0.0744965, 0.0744965, 0.0757381, 0.0757381, 0.0757381, 0.0757381, 0.0597932, 0.0597932, 0.0597932, 0.0597932, 0.0597932, 0.0597932, 0.0597932, 0.0597932, 0.0614093, 0.0614093, 0.0614093, 0.0614093, 0.0614093, 0.0614093, 0.0614093, 0.0614093, 0.0826234, 0.0826234, 0.0826234, 0.0826234, 0.0841534, 0.0841534, 0.0841534, 0.0841534, 0.0649184, 0.0649184, 0.0649184, 0.0649184, 0.0649184, 0.0649184, 0.0649184, 0.0649184, 0.0668277, 0.0668277, 0.0668277, 0.0668277, 0.0668277, 0.0668277, 0.0668277, 0.0668277, 0.0927405, 0.0927405, 0.0927405, 0.0927405, 0.0941821, 0.0941821, 0.0946726, 0.0946726, 0.0710044, 0.0710044, 0.0710044, 0.0710044, 0.0710044, 0.0710044, 0.0710044, 0.0710044, 0.100984, 0.100984, 0.100984, 0.100984, 0.103279, 0.103279, 0.103279, 0.103279, 0.104466, 0.104466, 0.105681, 0.105681, 0.108197, 0.108197, 0.108197, 0.108197, 0.0783497, 0.0783497, 0.0783497, 0.0783497, 0.0783497, 0.0783497, 0.0783497, 0.0783497, 0.0811479, 0.0811479, 0.0811479, 0.0811479, 0.0811479, 0.0811479, 0.0811479, 0.0811479, 0.122819, 0.122819, 0.122819, 0.122819
0.0472133, 0.195453, 0.197578, 0.199749, 0.201968, 0.204238, 0.154044, 0.154044, 0.0721315, 0.0721315, 0.0721315, 0.0721315, 0.0721315, 0.0721315, 0.0721315, 0.0721315, 0.079031, 0.079031, 0.171482, 0.0773495, 0.201968, 0.201968, 0.112205, 0.112205, 0.0811479, 0.0811479, 0.173116, 0.173116, 0.173116, 0.0811479, 0.0822495, 0.185481, 0.185481, 0.185481, 0.0857412, 0.0857412, 0.0845448, 0.0849399, 0.0853387, 0.0857412, 0.120378, 0.121181, 0.129837, 0.129837, 0.123654, 0.123654, 0.13565, 0.13565, 0.129837, 0.129837, 0.23304, 0.23304, 0.137706, 0.137706, 0.0946726, 0.0946726, 0.275411, 0.275411, 0.25246, 0.0936966, 0.0757381, 0.0757381, 0.0763745, 0.0763745, 0.0811479, 0.0811479, 0.0811479, 0.0811479, 0.0811479, 0.0811479, 0.0811479, 0.0811479, 0.0594024, 0.0594024, 0.101548, 0.102119, 1.29837, 1.29837, 1.51476, 1.51476, 0.0605905, 0.0605905, 0.0605905, 0.0605905, 1.81771, 2.01968, 4.54428, 4.54428, 9.08857, 9.08857, 0, 0, 0.0797243, 0.0797243, 0.0797243, 0.0797243, 0.0797243, 0.0797243, 0.0797243, 0.0797243, 0.0797243, 0.0797243, 0.0797243, 0.0797243, 1.00984, 1.00984, 1.51476, 1.39824, 0.0826234, 0.0826234, 0.0826234, 0.0826234, 1.00984, 0.956691, 0.605905, 0.605905, 0.757381, 0.757381, 0.757381, 0.727086, 0.504921, 0.504921, 0.0865578, 0.0865578, 0.550822, 0.586359, 0.0550822, 0.0550822, 0.0550822, 0.0550822, 0.206558, 0.206558, 0.308087, 0.239173, 0.201968, 0.201968, 0.0528405, 0.0528405, 0.0525351, 0.0525351, 0.0528405, 0.0528405, 0.0528405, 0.0528405, 0.0531495, 0.0531495, 0.0534622, 0.0534622, 0.0537785, 0.0537785, 0.0540986, 0.0540986, 0.0544226, 0.0544226, 0.0547504, 0.0547504, 0.0550822, 0.0550822, 0.0554181, 0.0554181, 0.0557581, 0.0557581, 0.0561023, 0.0561023, 0.0564507, 0.0564507, 0.0571608, 0.0571608, 0.0571608, 0.0571608, 0.0575226, 0.0575226, 0.0582601, 0.0582601, 0.0582601, 0.0582601, 0.0590167, 0.0590167, 0.0590167, 0.0590167, 0.0597932, 0.0597932, 0.0597932, 0.0597932, 0.0605905, 0.0605905, 0.0605905, 0.0605905, 0.0614093, 0.0614093, 0.0614093, 0.0614093, 0.061827, 0.061827, 0.0624644, 0.0624644, 0.0631151, 0.0631151, 0.0631151, 0.0631151, 0.0516396, 0.0516396, 0.0516396, 0.0516396, 0.0516396, 0.0516396, 0.0516396, 0.0516396, 0.0658592, 0.0658592, 0.0658592, 0.0658592, 0.0668277, 0.0668277, 0.0668277, 0.0668277, 0.0673227, 0.0673227, 0.0678251, 0.0678251, 0.0688528, 0.0688528, 0.0688528, 0.0688528, 0.0554181, 0.0554181, 0.0554181, 0.0554181, 0.0554181, 0.0554181, 0.0554181, 0.0554181, 0.0568036, 0.0568036, 0.0568036, 0.0568036, 0.0568036, 0.0568036, 0.0568036, 0.0568036, 0.0744965, 0.0744965, 0.0744965, 0.0744965, 0.0757381, 0.0757381, 0.0757381, 0.0757381, 0.0597932, 0.0597932, 0.0597932, 0.0597932, 0.0597932, 0.0597932, 0.0597932, 0.0597932, 0.0614093, 0.0614093, 0.0614093, 0.0614093, 0.0614093, 0.0614093, 0.0614093, 0.0614093, 0.0826234, 0.0826234, 0.0826234, 0.0826234, 0.0841534, 0.0841534, 0.0841534, 0.0841534, 0.0649184, 0.0649184, 0.0649184, 0.0649184, 0.0649184, 0.0649184, 0.0649184, 0.0649184, 0.0668277, 0.0668277, 0.0668277, 0.0668277, 0.0668277, 0.0668277, 0.0668277, 0.0668277, 0.0927405, 0.0927405, 0.0927405, 0.0927405, 0.0936966, 0.0936966, 0.0946726, 0.0946726, 0.0710044, 0.0710044, 0.0710044, 0.0710044, 0.0710044, 0.0710044, 0.0710044, 0.0710044, 0.100984, 0.100984, 0.100984, 0.100984, 0.103279, 0.103279, 0.103279, 0.103279, 0.103869, 0.104466, 0.105681, 0.105681, 0.108197, 0.108197, 0.108197, 0.108197, 0.0783497, 0.0783497, 0.0783497, 0.0783497, 0.0783497, 0.0783497, 0.0783497, 0.0783497, 0.0811479, 0.0811479, 0.0811479, 0.0811479, 0.0811479, 0.0811479, 0.0811479, 0.0811479, 0.122819, 0.122819, 0.122819, 0.122819
0.0475841, 0.0987888, 0.0987888, 0.0724189, 0.0724189, 0.0724189, 0.154044, 0.154044, 0.0721315, 0.0721315, 0.0721315, 0.0721315, 0.0721315, 0.0721315, 0.0721315, 0.0721315, 0.079031, 0.079031, 0.179972, 0.181771, 0.201968, 0.201968, 0.112205, 0.112205, 0.0811479, 0.0811479, 0.195453, 0.102696, 0.102696, 0.197578, 0.0807873, 0.10507, 0.10507, 0.0815118, 0.0857412, 0.0857412, 0.120378, 0.120378, 0.123654, 0.0849399, 0.189345, 0.23304, 0.129837, 0.129837, 0.242362, 0.168307, 0.13565, 0.13565, 0.129837, 0.129837, 0.23304, 0.23304, 0.137706, 0.137706, 0.0946726, 0.0946726, 0.0913424, 0.0918037, 0.0922697, 0.0922697, 0.0757381, 0.0757381, 0.0763745, 0.0763745, 0.0811479, 0.0811479, 0.0811479, 0.0811479, 0.0811479, 0.0811479, 0.0811479, 0.0811479, 0.0594024, 0.0594024, 0.0592089, 0.0594024, 1.29837, 1.29837, 1.51476, 1.51476, 0.0605905, 0.0605905, 0.0605905, 0.0605905, 0.0609971, 0.0612025, 4.54428, 4.54428, 9.08857, 9.08857, 0, 0, 0.0797243, 0.0797243, 0.0797243, 0.0797243, 0.0797243, 0.0797243, 0.0797243, 0.0797243, 0.0797243, 0.0797243, 0.0797243, 0.0797243, 1.00984, 1.00984, 0.0658592, 0.0660987, 0.0826234, 0.0826234, 0.0826234, 0.0826234, 0.0673227, 0.067573, 0.605905, 0.605905, 0.757381, 0.757381, 0.0688528, 0.0691146, 0.504921, 0.504921, 0.0865578, 0.0865578, 0.25246, 0.0699121, 0.0550822, 0.0550822, 0.0550822, 0.0550822, 0.206558, 0.206558, 0.16988, 0.11652, 0.119586, 0.13268, 0.0528405, 0.0528405, 0.0525351, 0.0525351, 0.0531495, 0.0522332, 0.0522332, 0.0523837, 0.0531495, 0.0531495, 0.0534622, 0.0534622, 0.0537785, 0.0537785, 0.0540986, 0.0540986, 0.0544226, 0.0544226, 0.0547504, 0.0547504, 0.0550822, 0.0550822, 0.0554181, 0.0554181, 0.0557581, 0.0557581, 0.0561023, 0.0561023, 0.0564507, 0.0564507, 0.0561023, 0.056276, 0.0564507, 0.0566266, 0.0575226, 0.0575226, 0.0582601, 0.0582601, 0.0582601, 0.0582601, 0.0590167, 0.0590167, 0.0590167, 0.0590167, 0.0597932, 0.0597932, 0.0597932, 0.0597932, 0.0605905, 0.0605905, 0.0605905, 0.0605905, 0.0614093, 0.0614093, 0.0614093, 0.0614093, 0.061827, 0.061827, 0.0614093, 0.0616174, 0.0631151, 0.0631151, 0.0631151, 0.0631151, 0.0516396, 0.0516396, 0.0516396, 0.0516396, 0.0516396, 0.0516396, 0.0516396, 0.0516396, 0.0658592, 0.0658592, 0.0658592, 0.0658592, 0.0668277, 0.0668277, 0.0668277, 0.0668277, 0.0673227, 0.0673227, 0.0678251, 0.0678251, 0.0688528, 0.0688528, 0.0688528, 0.0688528, 0.0554181, 0.0554181, 0.0554181, 0.0554181, 0.0554181, 0.0554181, 0.0554181, 0.0554181, 0.0568036, 0.0568036, 0.0568036, 0.0568036, 0.0568036, 0.0568036, 0.0568036, 0.0568036, 0.0744965, 0.0744965, 0.0744965, 0.0744965, 0.0757381, 0.0757381, 0.0757381, 0.0757381, 0.0597932, 0.0597932, 0.0597932, 0.0597932, 0.0597932, 0.0597932, 0.0597932, 0.0597932, 0.0614093, 0.0614093, 0.0614093, 0.0614093, 0.0614093, 0.0614093, 0.0614093, 0.0614093, 0.0826234, 0.0826234, 0.0826234, 0.0826234, 0.0841534, 0.0841534, 0.0841534, 0.0841534, 0.0649184, 0.0649184, 0.0649184, 0.0649184, 0.0649184, 0.0649184, 0.0649184, 0.0649184, 0.0668277, 0.0668277, 0.0668277, 0.0668277, 0.0668277, 0.0668277, 0.0668277, 0.0668277, 0.0927405, 0.0927405, 0.0927405, 0.0927405, 0.0936966, 0.0936966, 0.0946726, 0.0946726, 0.0710044, 0.0710044, 0.0710044, 0.0710044, 0.0710044, 0.0710044, 0.0710044, 0.0710044, 0.100984, 0.100984, 0.100984, 0.100984, 0.103279, 0.103279, 0.103279, 0.103279, 0.106924, 0.103279, 0.105681, 0.105681, 0.108197, 0.108197, 0.108197, 0.108197, 0.0783497, 0.0783497, 0.0783497, 0.0783497, 0.0783497, 0.0783497, 0.0783497, 0.0783497, 0.0811479, 0.0811479, 0.0811479, 0.0811479, 0.0811479, 0.0811479, 0.0811479, 0.0811479, 0.122819, 0.122819, 0.122819, 0.122819
0.102119, 0.102119, 0.0982548, 0.121181, 0.124501, 0.124501, 0.12623, 0.12623, 0.197578, 0.197578, 0.197578, 0.197578, 0.201968, 0.201968, 0.206558, 0.206558, 0.171482, 0.105681, 0.106924, 0.107557, 0.107557, 0.107557, 0.185481, 0.185481, 0.110164, 0.142009, 0.14659, 0.14659, 0.0773495, 0.115045, 0.151476, 0.151476, 0.211362, 0.211362, 0.216395, 0.216395, 0.122819, 0.122819, 0.122819, 0.122819, 0.0822495, 0.121994, 0.168307, 0.168307, 0.0946726, 0.0946726, 0.0946726, 0.0946726, 0.0946726, 0.0946726, 0.0946726, 0.0946726, 0.0751121, 0.0751121, 0.0751121, 0.0751121, 0.197578, 0.197578, 0.13565, 0.13667, 0.0904335, 0.0601892, 0.0783497, 0.0783497, 0.0811479, 0.0811479, 0.0811479, 0.0811479, 0.0811479, 0.0811479, 0.0811479, 0.0811479, 3.02952, 3.02952, 0.0735917, 0.0951683, 0.0757381, 0.0757381, 0.0972039, 0.0751121, 0.103279, 0.103279, 0.103279, 0.103279, 0.105681, 0.105681, 0.105681, 0.105681, 0.109501, 0.109501, 0.109501, 0.109501, 0.109501, 0.109501, 0.0683351, 0.0683351, 0.081879, 0.081879, 0.0826234, 0.0826234, 0.0833814, 0.0833814, 0.0841534, 0.0841534, 0.0744965, 0.0744965, 0.0744965, 0.0744965, 0.0918037, 0.0918037, 0.0918037, 0.0918037, 0.0561023, 0.0561023, 0.0561023, 0.0561023, 0.0946726, 0.0946726, 0.0738908, 0.0741924, 0.0561023, 0.0561023, 0.0561023, 0.0561023, 0.227214, 0.227214, 0.208933, 0.178207, 0.178207, 0.178207, 0.0554181, 0.0554181, 0.0540986, 0.0540986, 0.0531495, 0.0531495, 0.0531495, 0.0531495, 0.0528405, 0.0528405, 0.0528405, 0.0529946, 0.0537785, 0.0537785, 0.0516396, 0.0516396, 0.0516396, 0.0516396, 0.0522332, 0.0522332, 0.0522332, 0.0522332, 0.0528405, 0.0528405, 0.0528405, 0.0528405, 0.0561023, 0.0561023, 0.0564507, 0.0564507, 0.0568036, 0.0568036, 0.0571608, 0.0571608, 0.0547504, 0.0547504, 0.0547504, 0.0547504, 0.0554181, 0.0554181, 0.0554181, 0.0554181, 0.0590167, 0.0590167, 0.0592089, 0.0592089, 0.0592089, 0.0592089, 0.0601892, 0.0601892, 0.0575226, 0.0575226, 0.0575226, 0.0575226, 0.0582601, 0.0582601, 0.0582601, 0.0582601, 0.0622505, 0.0622505, 0.061827, 0.062038, 0.0597932, 0.0597932, 0.0597932, 0.0597932, 0.0605905, 0.0605905, 0.0605905, 0.0605905, 0.0516396, 0.0516396, 0.0516396, 0.0516396, 0.0516396, 0.0516396, 0.0516396, 0.0516396, 0.0631151, 0.0631151, 0.0631151, 0.0631151, 0.0678251, 0.0678251, 0.0683351, 0.0683351, 0.0649184, 0.0649184, 0.0649184, 0.0649184, 0.0658592, 0.0658592, 0.0658592, 0.0658592, 0.0554181, 0.0554181, 0.0554181, 0.0554181, 0.0554181, 0.0554181, 0.0554181, 0.0554181, 0.0568036, 0.0568036, 0.0568036, 0.0568036, 0.0568036, 0.0568036, 0.0568036, 0.0568036, 0.0710044, 0.0710044, 0.0710044, 0.0710044, 0.0770218, 0.0770218, 0.0770218, 0.0770218, 0.0597932, 0.0597932, 0.0597932, 0.0597932, 0.0597932, 0.0597932, 0.0597932, 0.0597932, 0.0614093, 0.0614093, 0.0614093, 0.0614093, 0.0614093, 0.0614093, 0.0614093, 0.0614093, 0.0841534, 0.0841534, 0.0833814, 0.0837656, 0.0797243, 0.0797243, 0.0797243, 0.0797243, 0.0649184, 0.0649184, 0.0649184, 0.0649184, 0.0649184, 0.0649184, 0.0649184, 0.0649184, 0.0668277, 0.0668277, 0.0668277, 0.0668277, 0.0668277, 0.0668277, 0.0668277, 0.0668277, 0.0873901, 0.0873901, 0.0873901, 0.0873901, 0.0891036, 0.0891036, 0.0891036, 0.0891036, 0.0710044, 0.0710044, 0.0710044, 0.0710044, 0.0710044, 0.0710044, 0.0710044, 0.0710044, 0.0946726, 0.0946726, 0.0946726, 0.0946726, 0.105681, 0.105681, 0.106924, 0.106924, 0.106924, 0.106924, 0.109501, 0.109501, 0.100984, 0.100984, 0.100984, 0.100984, 0.0783497, 0.0783497, 0.0783497, 0.0783497, 0.0783497, 0.0783497, 0.0783497, 0.0783497, 0.0811479, 0.0811479, 0.0811479, 0.0811479, 0.0811479, 0.0811479, 0.0811479, 0.0811479, 0.113607, 0.113607, 0.113607, 0.113607
0.102119, 0.102119, 0.070454, 0.070454, 0.124501, 0.124501, 0.12623, 0.12623, 0.197578, 0.197578, 0.197578, 0.197578, 0.201968, 0.201968, 0.206558, 0.206558, 0.166763, 0.168307, 0.173116, 0.176477, 0.173116, 0.17478, 0.185481, 0.185481, 0.179972, 0.185481, 0.14659, 0.14659, 0.143127, 0.185481, 0.151476, 0.151476, 0.211362, 0.211362, 0.216395, 0.216395, 0.122819, 0.122819, 0.122819, 0.122819, 0.124501, 0.159449, 0.168307, 0.168307, 0.0946726, 0.0946726, 0.0946726, 0.0946726, 0.0946726, 0.0946726, 0.0946726, 0.0946726, 0.0751121, 0.0751121, 0.0751121, 0.0751121, 0.197578, 0.197578, 0.137706, 0.140908, 0.137706, 0.0908857, 0.0783497, 0.0783497, 0.0811479, 0.0811479, 0.0811479, 0.0811479, 0.0811479, 0.0811479, 0.0811479, 0.0811479, 3.02952, 3.02952, 0.0735917, 0.0738908, 0.0757381, 0.0757381, 0.0977265, 0.0977265, 0.103279, 0.103279, 0.103279, 0.103279, 0.105681, 0.105681, 0.105681, 0.105681, 0.109501, 0.109501, 0.109501, 0.109501, 0.109501, 0.109501, 0.0683351, 0.0683351, 0.081879, 0.081879, 0.0826234, 0.0826234, 0.0833814, 0.0833814, 0.0841534, 0.0841534, 0.0744965, 0.0744965, 0.0744965, 0.0744965, 0.0918037, 0.0918037, 0.0918037, 0.0918037, 0.0561023, 0.0561023, 0.0561023, 0.0561023, 0.0946726, 0.0946726, 0.0891036, 0.0895426, 0.0561023, 0.0561023, 0.0561023, 0.0561023, 0.227214, 0.227214, 0.179972, 0.178207, 0.176477, 0.179972, 0.0554181, 0.0554181, 0.0540986, 0.0540986, 0.0531495, 0.0531495, 0.0531495, 0.0531495, 0.0531495, 0.0531495, 0.0533054, 0.0534622, 0.0537785, 0.0537785, 0.0516396, 0.0516396, 0.0516396, 0.0516396, 0.0522332, 0.0522332, 0.0522332, 0.0522332, 0.0528405, 0.0528405, 0.0528405, 0.0528405, 0.0561023, 0.0561023, 0.0564507, 0.0564507, 0.0568036, 0.0568036, 0.0571608, 0.0571608, 0.0547504, 0.0547504, 0.0547504, 0.0547504, 0.0554181, 0.0554181, 0.0554181, 0.0554181, 0.0590167, 0.0590167, 0.0592089, 0.0594024, 0.0595972, 0.0597932, 0.0601892, 0.0601892, 0.0575226, 0.0575226, 0.0575226, 0.0575226, 0.0582601, 0.0582601, 0.0582601, 0.0582601, 0.0622505, 0.0622505, 0.0626798, 0.0626798, 0.0597932, 0.0597932, 0.0597932, 0.0597932, 0.0605905, 0.0605905, 0.0605905, 0.0605905, 0.0516396, 0.0516396, 0.0516396, 0.0516396, 0.0516396, 0.0516396, 0.0516396, 0.0516396, 0.0631151, 0.0631151, 0.0631151, 0.0631151, 0.0678251, 0.0678251, 0.0683351, 0.0683351, 0.0649184, 0.0649184, 0.0649184, 0.0649184, 0.0658592, 0.0658592, 0.0658592, 0.0658592, 0.0554181, 0.0554181, 0.0554181, 0.0554181, 0.0554181, 0.0554181, 0.0554181, 0.0554181, 0.0568036, 0.0568036, 0.0568036, 0.0568036, 0.0568036, 0.0568036, 0.0568036, 0.0568036, 0.0710044, 0.0710044, 0.0710044, 0.0710044, 0.0770218, 0.0770218, 0.0780135, 0.0780135, 0.0597932, 0.0597932, 0.0597932, 0.0597932, 0.0597932, 0.0597932, 0.0597932, 0.0597932, 0.0614093, 0.0614093, 0.0614093, 0.0614093, 0.0614093, 0.0614093, 0.0614093, 0.0614093, 0.0841534, 0.0841534, 0.0853387, 0.0853387, 0.0797243, 0.0797243, 0.0797243, 0.0797243, 0.0649184, 0.0649184, 0.0649184, 0.0649184, 0.0649184, 0.0649184, 0.0649184, 0.0649184, 0.0668277, 0.0668277, 0.0668277, 0.0668277, 0.0668277, 0.0668277, 0.0668277, 0.0668277, 0.0873901, 0.0873901, 0.0873901, 0.0873901, 0.0891036, 0.0891036, 0.0891036, 0.0891036, 0.0710044, 0.0710044, 0.0710044, 0.0710044, 0.0710044, 0.0710044, 0.0710044, 0.0710044, 0.0946726, 0.0946726, 0.0946726, 0.0946726, 0.105681, 0.105681, 0.106924, 0.106924, 0.107557, 0.108197, 0.109501, 0.109501, 0.100984, 0.100984, 0.100984, 0.100984, 0.0783497, 0.0783497, 0.0783497, 0.0783497, 0.0783497, 0.0783497, 0.0783497, 0.0783497, 0.0811479, 0.0811479, 0.0811479, 0.0811479, 0.0811479, 0.0811479, 0.0811479, 0.0811479, 0.113607, 0.113607, 0.113607, 0.113607
0.239173, 0.163758, 0.128008, 0.128008, 0.259673, 0.259673, 0.216395, 0.216395, 0.197578, 0.197578, 0.197578, 0.197578, 0.201968, 0.201968, 0.197578, 0.197578, 0.201968, 0.201968, 0.208933, 0.211362, 0.211362, 0.213849, 0.363543, 0.363543, 0.356414, 0.279648, 0.356414, 0.605905, 0.0899858, 0.0899858, 0.478346, 0.478346, 0.478346, 0.478346, 0.478346, 0.478346, 0.122819, 0.122819, 0.122819, 0.122819, 0.0770218, 0.0770218, 0.0776801, 0.0776801, 0.0946726, 0.0946726, 0.0946726, 0.0946726, 0.0946726, 0.0946726, 0.0946726, 0.0946726, 0.101548, 0.102696, 0.102696, 0.103279, 9.08857, 9.08857, 4.54428, 4.54428, 0.826234, 0.826234, 0.0849399, 0.0849399, 0.0811479, 0.0811479, 0.0811479, 0.0811479, 0.0811479, 0.0811479, 0.0811479, 0.0811479, 0.757381, 0.757381, 0.79031, 0.11652, 0.504921, 0.504921, 0.605905, 0.605905, 0.103279, 0.103279, 0.103279, 0.103279, 0.105681, 0.105681, 0.105681, 0.105681, 0.12623, 0.12623, 0.413117, 0.413117, 0.443345, 0.0680792, 0.0977265, 0.133655, 0.13565, 0.13565, 0.313399, 0.313399, 0.138757, 0.140908, 0.313399, 0.313399, 0.0744965, 0.0744965, 0.0744965, 0.0744965, 0.284018, 0.284018, 0.313399, 0.284018, 0.0561023, 0.0561023, 0.0561023, 0.0561023, 0.211362, 0.211362, 0.201968, 0.201968, 0.0561023, 0.0561023, 0.0561023, 0.0561023, 0.208933, 0.0780135, 0.195453, 0.183607, 0.16988, 0.16988, 0.165247, 0.158062, 0.14659, 0.14659, 0.115045, 0.115045, 0.115778, 0.0516396, 0.115045, 0.114322, 0.0519347, 0.0520835, 0.0523837, 0.0525351, 0.0516396, 0.0516396, 0.0516396, 0.0516396, 0.0522332, 0.0522332, 0.0522332, 0.0522332, 0.0528405, 0.0528405, 0.0528405, 0.0528405, 0.054586, 0.054586, 0.0550822, 0.0550822, 0.0554181, 0.0554181, 0.0554181, 0.0555876, 0.0547504, 0.0547504, 0.0547504, 0.0547504, 0.0554181, 0.0554181, 0.0554181, 0.0554181, 0.0575226, 0.0575226, 0.057889, 0.057889, 0.0582601, 0.0582601, 0.0586359, 0.0586359, 0.0575226, 0.0575226, 0.0575226, 0.0575226, 0.0582601, 0.0582601, 0.0582601, 0.0582601, 0.0601892, 0.0603892, 0.0609971, 0.0609971, 0.0597932, 0.0597932, 0.0597932, 0.0597932, 0.0605905, 0.0605905, 0.0605905, 0.0605905, 0.0516396, 0.0516396, 0.0516396, 0.0516396, 0.0516396, 0.0516396, 0.0516396, 0.0516396, 0.0631151, 0.0631151, 0.0631151, 0.0631151, 0.0658592, 0.0658592, 0.0658592, 0.0660987, 0.0649184, 0.0649184, 0.0649184, 0.0649184, 0.0658592, 0.0658592, 0.0658592, 0.0658592, 0.0554181, 0.0554181, 0.0554181, 0.0554181, 0.0554181, 0.0554181, 0.0554181, 0.0554181, 0.0568036, 0.0568036, 0.0568036, 0.0568036, 0.0568036, 0.0568036, 0.0568036, 0.0568036, 0.0710044, 0.0710044, 0.0710044, 0.0710044, 0.0744965, 0.0744965, 0.0751121, 0.0751121, 0.0597932, 0.0597932, 0.0597932, 0.0597932, 0.0597932, 0.0597932, 0.0597932, 0.0597932, 0.0614093, 0.0614093, 0.0614093, 0.0614093, 0.0614093, 0.0614093, 0.0614093, 0.0614093, 0.0811479, 0.0811479, 0.081879, 0.081879, 0.0797243, 0.0797243, 0.0797243, 0.0797243, 0.0649184, 0.0649184, 0.0649184, 0.0649184, 0.0649184, 0.0649184, 0.0649184, 0.0649184, 0.0668277, 0.0668277, 0.0668277, 0.0668277, 0.0668277, 0.0668277, 0.0668277, 0.0668277, 0.0873901, 0.0873901, 0.0873901, 0.0873901, 0.0891036, 0.0891036, 0.0891036, 0.0891036, 0.0710044, 0.0710044, 0.0710044, 0.0710044, 0.0710044, 0.0710044, 0.0710044, 0.0710044, 0.0946726, 0.0946726, 0.0946726, 0.0946726, 0.0998744, 0.100426, 0.102119, 0.102119, 0.103279, 0.103279, 0.104466, 0.104466, 0.100984, 0.100984, 0.100984, 0.100984, 0.0783497, 0.0783497, 0.0783497, 0.0783497, 0.0783497, 0.0783497, 0.0783497, 0.0783497, 0.0811479, 0.0811479, 0.0811479, 0.0811479, 0.0811479, 0.0811479, 0.0811479, 0.0811479, 0.113607, 0.113607, 0.113607, 0.113607
0.171482, 0.324592, 0.128008, 0.128008, 0.324592, 0.259673, 0.216395, 0.216395, 0.197578, 0.197578, 0.197578, 0.197578, 0.201968, 0.201968, 0.197578, 0.197578, 0.201968, 0.191338, 0.199749, 0.142009, 0.318897, 0.318897, 0.363543, 0.363543, 0.144263, 0.34956, 0.37869, 0.34956, 0.386748, 0.386748, 0.478346, 0.478346, 0.478346, 0.478346, 0.478346, 0.478346, 0.122819, 0.122819, 0.122819, 0.122819, 0.0770218, 0.0770218, 0.0776801, 0.0776801, 0.0946726, 0.0946726, 0.0946726, 0.0946726, 0.0946726, 0.0946726, 0.0946726, 0.0946726, 0.102119, 0.102119, 3.02952, 0.103869, 9.08857, 9.08857, 4.54428, 4.54428, 0.826234, 0.826234, 0.0849399, 0.0849399, 0.0811479, 0.0811479, 0.0811479, 0.0811479, 0.0811479, 0.0811479, 0.0811479, 0.0811479, 0.757381, 0.757381, 0.11652, 0.117272, 0.504921, 0.504921, 0.605905, 0.605905, 0.103279, 0.103279, 0.103279, 0.103279, 0.105681, 0.105681, 0.105681, 0.105681, 0.12623, 0.12623, 0.12536, 1.51476, 0.363543, 0.13268, 0.0878123, 0.134645, 0.13565, 0.297986, 0.313399, 0.313399, 0.139824, 0.139824, 0.313399, 0.313399, 0.0744965, 0.0744965, 0.0744965, 0.0744965, 0.284018, 0.284018, 0.151476, 0.152749, 0.0561023, 0.0561023, 0.0561023, 0.0561023, 0.211362, 0.211362, 0.201968, 0.201968, 0.0561023, 0.0561023, 0.0561023, 0.0561023, 0.189345, 0.171482, 0.16988, 0.168307, 0.166763, 0.165247, 0.165247, 0.113607, 0.147782, 0.118033, 0.115045, 0.115045, 0.0514933, 0.0513478, 0.0514933, 0.0516396, 0.0516396, 0.0516396, 0.0516396, 0.0516396, 0.0516396, 0.0516396, 0.0516396, 0.0516396, 0.0522332, 0.0522332, 0.0522332, 0.0522332, 0.0528405, 0.0528405, 0.0528405, 0.0528405, 0.0534622, 0.0536199, 0.0550822, 0.0550822, 0.0554181, 0.0554181, 0.0547504, 0.0547504, 0.0547504, 0.0547504, 0.0547504, 0.0547504, 0.0554181, 0.0554181, 0.0554181, 0.0554181, 0.0575226, 0.0575226, 0.057889, 0.057889, 0.0582601, 0.0582601, 0.0586359, 0.0586359, 0.0575226, 0.0575226, 0.0575226, 0.0575226, 0.0582601, 0.0582601, 0.0582601, 0.0582601, 0.0594024, 0.0594024, 0.0609971, 0.0609971, 0.0597932, 0.0597932, 0.0597932, 0.0597932, 0.0605905, 0.0605905, 0.0605905, 0.0605905, 0.0516396, 0.0516396, 0.0516396, 0.0516396, 0.0516396, 0.0516396, 0.0516396, 0.0516396, 0.0631151, 0.0631151, 0.0631151, 0.0631151, 0.0658592, 0.0658592, 0.0649184, 0.0649184, 0.0649184, 0.0649184, 0.0649184, 0.0649184, 0.0658592, 0.0658592, 0.0658592, 0.0658592, 0.0554181, 0.0554181, 0.0554181, 0.0554181, 0.0554181, 0.0554181, 0.0554181, 0.0554181, 0.0568036, 0.0568036, 0.0568036, 0.0568036, 0.0568036, 0.0568036, 0.0568036, 0.0568036, 0.0710044, 0.0710044, 0.0710044, 0.0710044, 0.0744965, 0.0744965, 0.0751121, 0.0751121, 0.0597932, 0.0597932, 0.0597932, 0.0597932, 0.0597932, 0.0597932, 0.0597932, 0.0597932, 0.0614093, 0.0614093, 0.0614093, 0.0614093, 0.0614093, 0.0614093, 0.0614093, 0.0614093, 0.0811479, 0.0811479, 0.081879, 0.081879, 0.0797243, 0.0797243, 0.0797243, 0.0797243, 0.0649184, 0.0649184, 0.0649184, 0.0649184, 0.0649184, 0.0649184, 0.0649184, 0.0649184, 0.0668277, 0.0668277, 0.0668277, 0.0668277, 0.0668277, 0.0668277, 0.0668277, 0.0668277, 0.0873901, 0.0873901, 0.0873901, 0.0873901, 0.0891036, 0.0891036, 0.0891036, 0.0891036, 0.0710044, 0.0710044, 0.0710044, 0.0710044, 0.0710044, 0.0710044, 0.0710044, 0.0710044, 0.0946726, 0.0946726, 0.0946726, 0.0946726, 0.0977265, 0.0977265, 0.102119, 0.102119, 0.103279, 0.103279, 0.104466, 0.104466, 0.100984, 0.100984, 0.100984, 0.100984, 0.0783497, 0.0783497, 0.0783497, 0.0783497, 0.0783497, 0.0783497, 0.0783497, 0.0783497, 0.0811479, 0.0811479, 0.0811479, 0.0811479, 0.0811479, 0.0811479, 0.0811479, 0.0811479, 0.113607, 0.113607, 0.113607, 0.113607
0.128916, 0.0956691, 0.0927405, 0.0757381, 0.119586, 0.119586, 0.0977265, 0.0951683, 0.17478, 0.17478, 0.17478, 0.17478, 0.336614, 0.336614, 0.0961753, 0.0977265, 0.0977265, 0.0982548, 0.284018, 0.284018, 0.154044, 0.154044, 0.0993286, 0.107557, 0.454428, 0.454428, 0.154044, 0.154044, 0.162296, 0.162296, 0.162296, 0.162296, 0.504921, 0.504921, 0.37869, 0.37869, 0.121181, 0.121181, 0.178207, 0.178207, 0.0904335, 0.121994, 0.454428, 0.454428, 9.08857, 9.08857, 0.0956691, 0.0956691, 0.0941821, 6.05905, 9.08857, 6.05905, 0.0998744, 0.0998744, 3.02952, 2.01968, 0.0987888, 0.0987888, 0.0987888, 0.0987888, 0.0966869, 0.0966869, 0.0966869, 0.0966869, 0.105681, 0.105681, 0.106924, 0.106924, 0.0699121, 0.0699121, 0.0699121, 0.0699121, 0.395155, 0.673227, 0.0693784, 0.0693784, 0.0699121, 0.0699121, 0.070454, 0.070454, 0.0710044, 0.0710044, 0.0715635, 0.0715635, 0.070454, 0.070454, 0.122819, 0.122819, 0.131718, 0.131718, 0.0738908, 0.0738908, 0.0744965, 0.0744965, 0.275411, 0.271301, 0.0710044, 0.0710044, 0.0710044, 0.0710044, 0.259673, 0.259673, 0.239173, 0.267311, 0.245637, 0.245637, 0.302952, 0.23009, 0.227214, 0.224409, 0.227214, 0.227214, 0.195453, 0.227214, 0.227214, 0.206558, 0.201968, 0.201968, 0.197578, 0.197578, 0.206558, 0.206558, 0.193374, 0.193374, 0.154044, 0.154044, 0.166763, 0.166763, 0.124501, 0.124501, 0.147782, 0.124501, 0.124501, 0.124501, 0.12623, 0.054586, 0.054586, 0.0547504, 0.0522332, 0.0522332, 0.0522332, 0.0522332, 0.0498004, 0.0523837, 0.0525351, 0.0514933, 0.0528405, 0.0529946, 0.0519347, 0.0507741, 0.0534622, 0.0534622, 0.0512032, 0.0539381, 0.0540986, 0.0540986, 0.0554181, 0.0554181, 0.0554181, 0.0554181, 0.0525351, 0.0525351, 0.0554181, 0.0554181, 0.0557581, 0.0559297, 0.0561023, 0.056276, 0.0614093, 0.0614093, 0.0614093, 0.0614093, 0.0614093, 0.0614093, 0.0614093, 0.0614093, 0.057889, 0.057889, 0.0582601, 0.0584474, 0.0586359, 0.0588257, 0.0590167, 0.0590167, 0.0605905, 0.0605905, 0.0605905, 0.0605905, 0.0614093, 0.0614093, 0.0614093, 0.0614093, 0.0622505, 0.0622505, 0.0622505, 0.0622505, 0.061827, 0.0586359, 0.0622505, 0.0622505, 0.0626798, 0.0626798, 0.0631151, 0.0631151, 0.0649184, 0.0649184, 0.0649184, 0.0649184, 0.0658592, 0.0658592, 0.0658592, 0.0658592, 0.0668277, 0.0668277, 0.0668277, 0.0668277, 0.0663399, 0.0665829, 0.0668277, 0.0668277, 0.0688528, 0.0688528, 0.0688528, 0.0688528, 0.0683351, 0.0683351, 0.0688528, 0.0688528, 0.0710044, 0.0710044, 0.0710044, 0.0710044, 0.0783497, 0.0783497, 0.0783497, 0.0783497, 0.0783497, 0.0783497, 0.0783497, 0.0783497, 0.0744965, 0.0744965, 0.0744965, 0.0744965, 0.0757381, 0.0757381, 0.0757381, 0.0757381, 0.0770218, 0.0770218, 0.0770218, 0.0770218, 0.0763745, 0.0763745, 0.0770218, 0.0770218, 0.0797243, 0.0797243, 0.0797243, 0.0797243, 0.0811479, 0.0811479, 0.0811479, 0.0811479, 0.0826234, 0.0826234, 0.0826234, 0.0826234, 0.0841534, 0.0841534, 0.0841534, 0.0841534, 0.0857412, 0.0857412, 0.0857412, 0.0857412, 0.0849399, 0.0849399, 0.0857412, 0.0861476, 0.0865578, 0.086972, 0.0873901, 0.0873901, 0.0908857, 0.0908857, 0.0908857, 0.0908857, 0.0927405, 0.0927405, 0.0927405, 0.0927405, 0.0946726, 0.0946726, 0.0946726, 0.0946726, 0.0966869, 0.0966869, 0.0966869, 0.0966869, 0.0956691, 0.0956691, 0.0966869, 0.0966869, 0.0977265, 0.0977265, 0.0987888, 0.0993286, 0.0998744, 0.0918037, 0.100984, 0.100984, 0.102119, 0.102119, 0.103279, 0.103279, 0.104466, 0.104466, 0.105681, 0.105681, 0.12623, 0.12623, 0.12623, 0.12623, 0.12623, 0.12623, 0.12623, 0.12623, 0.11652, 0.11652, 0.11652, 0.11652, 0.119586, 0.119586, 0.119586, 0.119586, 0.142009, 0.142009, 0.142009, 0.142009
0.16086, 0.163758, 0.163758, 0.165247, 0.119586, 0.119586, 0.16988, 0.171482, 0.17478, 0.17478, 0.17478, 0.17478, 0.336614, 0.336614, 0.185481, 0.185481, 0.185481, 0.191338, 0.284018, 0.284018, 0.154044, 0.154044, 0.106924, 0.151476, 0.454428, 0.454428, 0.154044, 0.154044, 0.162296, 0.162296, 0.162296, 0.162296, 0.504921, 0.504921, 0.37869, 0.37869, 0.121181, 0.121181, 0.178207, 0.178207, 2.27214, 0.176477, 0.454428, 0.454428, 9.08857, 9.08857, 0.0956691, 0.0956691, 0.128008, 0.128008, 0.128008, 0.0908857, 0.0998744, 0.0998744, 0.13268, 0.13268, 0.0987888, 0.0987888, 0.0987888, 0.0987888, 0.0966869, 0.0966869, 0.0966869, 0.0966869, 0.105681, 0.105681, 0.106924, 0.106924, 0.0699121, 0.0699121, 0.0699121, 0.0699121, 0.432789, 0.422724, 0.0693784, 0.0693784, 0.0699121, 0.0699121, 0.070454, 0.070454, 0.0710044, 0.0710044, 0.0715635, 0.0715635, 0.070454, 0.070454, 0.122819, 0.122819, 0.131718, 0.131718, 0.0738908, 0.0738908, 0.0744965, 0.0744965, 0.284018, 0.279648, 0.0710044, 0.0710044, 0.0710044, 0.0710044, 0.259673, 0.259673, 0.256016, 0.249002, 0.245637, 0.245637, 0.0616174, 0.23009, 0.23009, 0.23009, 0.227214, 0.227214, 0.140908, 0.219002, 0.216395, 0.213849, 0.201968, 0.201968, 0.208933, 0.206558, 0.206558, 0.206558, 0.158062, 0.158062, 0.154044, 0.154044, 0.156699, 0.15536, 0.124501, 0.124501, 0.114322, 0.114322, 0.112901, 0.112901, 0.0547504, 0.0547504, 0.0547504, 0.0547504, 0.0522332, 0.0522332, 0.0522332, 0.0522332, 0.0533054, 0.0528405, 0.0539381, 0.0526874, 0.0526874, 0.0526874, 0.0526874, 0.0528405, 0.0534622, 0.0534622, 0.0533054, 0.0534622, 0.0540986, 0.0540986, 0.0554181, 0.0554181, 0.0554181, 0.0554181, 0.054586, 0.0547504, 0.0554181, 0.0554181, 0.0555876, 0.0555876, 0.0555876, 0.0557581, 0.0614093, 0.0614093, 0.0614093, 0.0614093, 0.0614093, 0.0614093, 0.0614093, 0.0614093, 0.057889, 0.057889, 0.0582601, 0.0582601, 0.0582601, 0.0582601, 0.0590167, 0.0590167, 0.0605905, 0.0605905, 0.0605905, 0.0605905, 0.0614093, 0.0614093, 0.0614093, 0.0614093, 0.0622505, 0.0622505, 0.0622505, 0.0622505, 0.0612025, 0.0614093, 0.0622505, 0.0622505, 0.0626798, 0.0626798, 0.0631151, 0.0631151, 0.0649184, 0.0649184, 0.0649184, 0.0649184, 0.0658592, 0.0658592, 0.0658592, 0.0658592, 0.0668277, 0.0668277, 0.0668277, 0.0668277, 0.0660987, 0.0660987, 0.0668277, 0.0668277, 0.0688528, 0.0688528, 0.0688528, 0.0688528, 0.0683351, 0.0683351, 0.0688528, 0.0688528, 0.0710044, 0.0710044, 0.0710044, 0.0710044, 0.0783497, 0.0783497, 0.0783497, 0.0783497, 0.0783497, 0.0783497, 0.0783497, 0.0783497, 0.0744965, 0.0744965, 0.0744965, 0.0744965, 0.0757381, 0.0757381, 0.0757381, 0.0757381, 0.0770218, 0.0770218, 0.0770218, 0.0770218, 0.0763745, 0.0763745, 0.0770218, 0.0770218, 0.0797243, 0.0797243, 0.0797243, 0.0797243, 0.0811479, 0.0811479, 0.0811479, 0.0811479, 0.0826234, 0.0826234, 0.0826234, 0.0826234, 0.0841534, 0.0841534, 0.0841534, 0.0841534, 0.0857412, 0.0857412, 0.0857412, 0.0857412, 0.0849399, 0.0849399, 0.0849399, 0.0849399, 0.0861476, 0.0861476, 0.0873901, 0.0873901, 0.0908857, 0.0908857, 0.0908857, 0.0908857, 0.0927405, 0.0927405, 0.0927405, 0.0927405, 0.0946726, 0.0946726, 0.0946726, 0.0946726, 0.0966869, 0.0966869, 0.0966869, 0.0966869, 0.0956691, 0.0956691, 0.0966869, 0.0966869, 0.0977265, 0.0977265, 0.0977265, 0.0977265, 0.0982548, 0.0987888, 0.100984, 0.100984, 0.102119, 0.102119, 0.103279, 0.103279, 0.104466, 0.104466, 0.105681, 0.105681, 0.12623, 0.12623, 0.12623, 0.12623, 0.12623, 0.12623, 0.12623, 0.12623, 0.11652, 0.11652, 0.11652, 0.11652, 0.119586, 0.119586, 0.119586, 0.119586, 0.142009, 0.142009, 0.142009, 0.142009
0.29318, 0.29318, 0.288526, 0.0961753, 0.151476, 0.151476, 0.151476, 0.151476, 0.239173, 0.239173, 0.330493, 0.330493, 0.100984, 0.356414, 0.356414, 0.363543, 0.259673, 0.259673, 0.259673, 0.259673, 0.165247, 0.165247, 0.454428, 0.454428, 0.275411, 0.275411, 0.109501, 0.109501, 0.162296, 0.162296, 0.162296, 0.162296, 0.154044, 0.154044, 0.568036, 0.191338, 0.699121, 0.699121, 0.165247, 0.165247, 0.201968, 0.201968, 0.165247, 0.165247, 0.106924, 0.106924, 0.23304, 0.236067, 0.0908857, 0.0908857, 0.0927405, 0.0927405, 0.0936966, 0.0936966, 0.0946726, 0.0946726, 1.65247, 0.249002, 0.110836, 0.110836, 0.0966869, 0.0966869, 0.0966869, 0.0966869, 0.0908857, 0.0908857, 0.0987888, 0.0993286, 0.0699121, 0.0699121, 0.0699121, 0.0699121, 0.128008, 0.128008, 0.103279, 0.103279, 0.064004, 0.064004, 0.275411, 0.275411, 0.064004, 0.0642302, 0.112205, 0.112205, 0.112205, 0.112205, 0.110836, 0.111516, 0.0683351, 0.0683351, 0.113607, 0.114322, 0.0683351, 0.0683351, 0.0683351, 0.0683351, 0.0710044, 0.0710044, 0.0710044, 0.0710044, 0.211362, 0.211362, 0.216395, 0.216395, 0.197578, 0.197578, 0.193374, 0.193374, 0.0727086, 0.0727086, 0.0738908, 0.0738908, 0.0738908, 0.0738908, 0.0738908, 0.0738908, 0.181771, 0.181771, 0.181771, 0.181771, 0.0590167, 0.0590167, 0.0741924, 0.144263, 0.139824, 0.133655, 0.0557581, 0.0557581, 0.113607, 0.113607, 0.112205, 0.112205, 0.110836, 0.110836, 0.0544226, 0.0544226, 0.0540986, 0.0542601, 0.0544226, 0.054586, 0.0519347, 0.0519347, 0.0550822, 0.0552497, 0.0439061, 0.0540986, 0.0542601, 0.049529, 0.0496643, 0.0496643, 0.0499372, 0.0499372, 0.0502131, 0.0502131, 0.0504921, 0.0504921, 0.0554181, 0.0554181, 0.0554181, 0.0554181, 0.0513478, 0.0513478, 0.0516396, 0.0516396, 0.0534622, 0.0575226, 0.0522332, 0.0523837, 0.0614093, 0.0614093, 0.0614093, 0.0614093, 0.0614093, 0.0614093, 0.0614093, 0.0614093, 0.0537785, 0.0537785, 0.0540986, 0.0542601, 0.0544226, 0.054586, 0.0547504, 0.0547504, 0.0605905, 0.0605905, 0.0605905, 0.0605905, 0.0614093, 0.0614093, 0.0614093, 0.0614093, 0.0622505, 0.0622505, 0.0622505, 0.0622505, 0.0571608, 0.0571608, 0.0575226, 0.0577052, 0.057889, 0.0580739, 0.0582601, 0.0582601, 0.0649184, 0.0649184, 0.0649184, 0.0649184, 0.0658592, 0.0658592, 0.0658592, 0.0658592, 0.0668277, 0.0668277, 0.0668277, 0.0668277, 0.0609971, 0.0609971, 0.0614093, 0.0614093, 0.0688528, 0.0688528, 0.0688528, 0.0688528, 0.0626798, 0.0626798, 0.0631151, 0.063335, 0.0710044, 0.0710044, 0.0710044, 0.0710044, 0.0783497, 0.0783497, 0.0783497, 0.0783497, 0.0783497, 0.0783497, 0.0783497, 0.0783497, 0.0744965, 0.0744965, 0.0744965, 0.0744965, 0.0757381, 0.0757381, 0.0757381, 0.0757381, 0.0770218, 0.0770218, 0.0770218, 0.0770218, 0.0693784, 0.0696442, 0.0699121, 0.0699121, 0.0797243, 0.0797243, 0.0797243, 0.0797243, 0.0811479, 0.0811479, 0.0811479, 0.0811479, 0.0826234, 0.0826234, 0.0826234, 0.0826234, 0.0841534, 0.0841534, 0.0841534, 0.0841534, 0.0857412, 0.0857412, 0.0857412, 0.0857412, 0.0763745, 0.0763745, 0.0895426, 0.0899858, 0.0904335, 0.0780135, 0.0783497, 0.0783497, 0.0908857, 0.0908857, 0.0908857, 0.0908857, 0.0927405, 0.0927405, 0.0927405, 0.0927405, 0.0946726, 0.0946726, 0.0946726, 0.0946726, 0.0966869, 0.0966869, 0.0966869, 0.0966869, 0.0849399, 0.0849399, 0.0857412, 0.0946726, 0.0946726, 0.086972, 0.0873901, 0.0878123, 0.0882385, 0.0882385, 0.0891036, 0.0891036, 0.0899858, 0.0899858, 0.108845, 0.0913424, 0.0918037, 0.0922697, 0.0927405, 0.0927405, 0.12623, 0.12623, 0.12623, 0.12623, 0.12623, 0.12623, 0.12623, 0.12623, 0.11652, 0.11652, 0.11652, 0.11652, 0.119586, 0.119586, 0.119586, 0.119586, 0.142009, 0.142009, 0.142009, 0.142009
0.29318, 0.29318, 0.288526, 0.288526, 0.151476, 0.151476, 0.151476, 0.151476, 0.239173, 0.239173, 0.318897, 0.151476, 0.318897, 0.356414, 0.363543, 0.34956, 0.259673, 0.259673, 0.259673, 0.259673, 0.413117, 0.106299, 0.454428, 0.454428, 0.275411, 0.275411, 0.109501, 0.109501, 0.162296, 0.162296, 0.162296, 0.162296, 0.154044, 0.154044, 0.324592, 0.568036, 0.699121, 0.699121, 0.165247, 0.165247, 0.201968, 0.201968, 0.165247, 0.165247, 0.106924, 0.106924, 0.413117, 0.443345, 0.0908857, 0.0908857, 0.0927405, 0.0927405, 0.0936966, 0.0936966, 0.0946726, 0.0946726, 0.0936966, 0.0941821, 0.110836, 0.110836, 0.0966869, 0.0966869, 0.0966869, 0.0966869, 0.0908857, 0.0908857, 0.115045, 0.395155, 0.0699121, 0.0699121, 0.0699121, 0.0699121, 0.128008, 0.128008, 0.103279, 0.103279, 0.064004, 0.064004, 0.275411, 0.275411, 0.313399, 0.308087, 0.112205, 0.112205, 0.112205, 0.112205, 0.110836, 0.111516, 0.0683351, 0.0683351, 0.263437, 0.259673, 0.0683351, 0.0683351, 0.0683351, 0.0683351, 0.0710044, 0.0710044, 0.0710044, 0.0710044, 0.211362, 0.211362, 0.216395, 0.216395, 0.197578, 0.197578, 0.193374, 0.193374, 0.0727086, 0.0727086, 0.0738908, 0.0738908, 0.0738908, 0.0738908, 0.0738908, 0.0738908, 0.181771, 0.181771, 0.181771, 0.181771, 0.0590167, 0.0590167, 0.0741924, 0.147782, 0.139824, 0.140908, 0.0557581, 0.0557581, 0.113607, 0.113607, 0.112205, 0.112205, 0.112901, 0.112901, 0.0544226, 0.0544226, 0.0540986, 0.0542601, 0.0544226, 0.054586, 0.0519347, 0.0519347, 0.0536199, 0.0516396, 0.0516396, 0.0517867, 0.0519347, 0.0520835, 0.0496643, 0.0496643, 0.0499372, 0.0499372, 0.0502131, 0.0502131, 0.0504921, 0.0504921, 0.0554181, 0.0554181, 0.0554181, 0.0554181, 0.0513478, 0.0513478, 0.0516396, 0.0516396, 0.0573411, 0.0575226, 0.0552497, 0.0552497, 0.0614093, 0.0614093, 0.0614093, 0.0614093, 0.0614093, 0.0614093, 0.0614093, 0.0614093, 0.0537785, 0.0537785, 0.0571608, 0.0575226, 0.0575226, 0.0577052, 0.0547504, 0.0547504, 0.0605905, 0.0605905, 0.0605905, 0.0605905, 0.0614093, 0.0614093, 0.0614093, 0.0614093, 0.0622505, 0.0622505, 0.0622505, 0.0622505, 0.0571608, 0.0571608, 0.0609971, 0.0612025, 0.0614093, 0.0616174, 0.0582601, 0.0582601, 0.0649184, 0.0649184, 0.0649184, 0.0649184, 0.0658592, 0.0658592, 0.0658592, 0.0658592, 0.0668277, 0.0668277, 0.0668277, 0.0668277, 0.0609971, 0.0609971, 0.0614093, 0.0614093, 0.0688528, 0.0688528, 0.0688528, 0.0688528, 0.0626798, 0.0626798, 0.0673227, 0.0678251, 0.0710044, 0.0710044, 0.0710044, 0.0710044, 0.0783497, 0.0783497, 0.0783497, 0.0783497, 0.0783497, 0.0783497, 0.0783497, 0.0783497, 0.0744965, 0.0744965, 0.0744965, 0.0744965, 0.0757381, 0.0757381, 0.0757381, 0.0757381, 0.0770218, 0.0770218, 0.0770218, 0.0770218, 0.0744965, 0.0751121, 0.0699121, 0.0699121, 0.0797243, 0.0797243, 0.0797243, 0.0797243, 0.0811479, 0.0811479, 0.0811479, 0.0811479, 0.0826234, 0.0826234, 0.0826234, 0.0826234, 0.0841534, 0.0841534, 0.0841534, 0.0841534, 0.0857412, 0.0857412, 0.0857412, 0.0857412, 0.0763745, 0.0763745, 0.0837656, 0.0837656, 0.0841534, 0.0845448, 0.0783497, 0.0783497, 0.0908857, 0.0908857, 0.0908857, 0.0908857, 0.0927405, 0.0927405, 0.0927405, 0.0927405, 0.0946726, 0.0946726, 0.0946726, 0.0946726, 0.0966869, 0.0966869, 0.0966869, 0.0966869, 0.0849399, 0.0849399, 0.0707282, 0.0941821, 0.0946726, 0.0956691, 0.0956691, 0.0961753, 0.0882385, 0.0882385, 0.0891036, 0.0891036, 0.0899858, 0.0899858, 0.0998744, 0.100984, 0.100984, 0.101548, 0.0927405, 0.0927405, 0.12623, 0.12623, 0.12623, 0.12623, 0.12623, 0.12623, 0.12623, 0.12623, 0.11652, 0.11652, 0.11652, 0.11652, 0.119586, 0.119586, 0.119586, 0.119586, 0.142009, 0.142009, 0.142009, 0.142009
0.302952, 0.302952, 0.302952, 0.302952, 0.0977265, 0.144263, 0.288526, 0.318897, 0.34956, 0.34956, 0.34956, 0.34956, 0.34956, 0.102119, 0.133655, 0.133655, 0.158062, 0.102119, 0.259673, 0.259673, 0.267311, 0.267311, 0.284018, 0.284018, 0.284018, 0.284018, 0.284018, 0.284018, 0.0927405, 0.302952, 0.534622, 0.534622, 0.185481, 0.185481, 0.187393, 0.0849399, 0.0961753, 0.673227, 0.363543, 0.363543, 0.395155, 0.395155, 0.386748, 0.386748, 0.104466, 0.104466, 0.108197, 0.108197, 0.108197, 0.108197, 0.626798, 0.0913424, 0.0946726, 0.0946726, 0.0946726, 0.0946726, 0.519347, 0.519347, 0.0966869, 0.0966869, 0.0966869, 0.0961753, 0.0977265, 0.0977265, 0.0622505, 0.0622505, 0.0622505, 0.0622505, 0.0622505, 0.0622505, 0.0622505, 0.0622505, 0.0631151, 0.0631151, 0.0635564, 0.0635564, 0.0649184, 0.0649184, 0.0649184, 0.0649184, 0.0649184, 0.0649184, 0.0649184, 0.0649184, 0.29318, 0.288526, 0.0663399, 0.0663399, 0.0668277, 0.0668277, 0.0673227, 0.0673227, 0.0678251, 0.0678251, 0.227214, 0.227214, 0.227214, 0.227214, 0.227214, 0.227214, 0.0721315, 0.0721315, 0.0721315, 0.0721315, 0.221672, 0.219002, 0.206558, 0.206558, 0.189345, 0.189345, 0.206558, 0.201968, 0.201968, 0.199749, 0.189345, 0.189345, 0.0554181, 0.0554181, 0.154044, 0.148993, 0.147782, 0.201968, 0.148993, 0.147782, 0.0557581, 0.0557581, 0.144263, 0.13667, 0.122819, 0.122819, 0.122819, 0.112901, 0.112901, 0.112901, 0.121994, 0.121994, 0.0540986, 0.0542601, 0.0544226, 0.0531495, 0.0516396, 0.0516396, 0.0435903, 0.0514933, 0.0516396, 0.0519347, 0.0519347, 0.0520835, 0.0540986, 0.0540986, 0.0540986, 0.0540986, 0.0547504, 0.0547504, 0.0547504, 0.0547504, 0.0507741, 0.0507741, 0.0537785, 0.0539381, 0.0540986, 0.0542601, 0.0544226, 0.054586, 0.0568036, 0.0568036, 0.0568036, 0.0568036, 0.0614093, 0.0614093, 0.0614093, 0.0614093, 0.0614093, 0.0614093, 0.0614093, 0.0614093, 0.0590167, 0.0590167, 0.0590167, 0.0590167, 0.0597932, 0.0597932, 0.0597932, 0.0597932, 0.0582601, 0.0584474, 0.0554181, 0.0554181, 0.0614093, 0.0614093, 0.0614093, 0.0614093, 0.0622505, 0.0622505, 0.0622505, 0.0622505, 0.0499372, 0.0499372, 0.0663399, 0.0644579, 0.0646873, 0.061827, 0.062038, 0.062038, 0.0649184, 0.0649184, 0.0649184, 0.0649184, 0.0658592, 0.0658592, 0.0658592, 0.0658592, 0.064004, 0.0642302, 0.0644579, 0.0646873, 0.0678251, 0.0678251, 0.0678251, 0.0678251, 0.0688528, 0.0688528, 0.0688528, 0.0688528, 0.0626798, 0.0626798, 0.0631151, 0.0631151, 0.0710044, 0.0710044, 0.0710044, 0.0710044, 0.0783497, 0.0783497, 0.0783497, 0.0783497, 0.0783497, 0.0783497, 0.0783497, 0.0783497, 0.0744965, 0.0744965, 0.0744965, 0.0744965, 0.0724189, 0.0724189, 0.0678251, 0.0678251, 0.0770218, 0.0770218, 0.0770218, 0.0770218, 0.0783497, 0.0783497, 0.0783497, 0.0783497, 0.070454, 0.070454, 0.0710044, 0.0710044, 0.0715635, 0.0715635, 0.0721315, 0.0721315, 0.0826234, 0.0826234, 0.0826234, 0.0826234, 0.0738908, 0.0738908, 0.0744965, 0.0744965, 0.0857412, 0.0857412, 0.0857412, 0.0857412, 0.0873901, 0.0873901, 0.0873901, 0.0873901, 0.0891036, 0.0891036, 0.0891036, 0.0891036, 0.0908857, 0.0908857, 0.0908857, 0.0908857, 0.0804298, 0.0804298, 0.0811479, 0.0811479, 0.0946726, 0.0946726, 0.0946726, 0.0946726, 0.0833814, 0.0833814, 0.0841534, 0.0841534, 0.0987888, 0.0987888, 0.0987888, 0.0987888, 0.100984, 0.100984, 0.100984, 0.100984, 0.0882385, 0.0882385, 0.0891036, 0.0891036, 0.0899858, 0.0899858, 0.0908857, 0.0908857, 0.108197, 0.108197, 0.108197, 0.108197, 0.12623, 0.12623, 0.12623, 0.12623, 0.12623, 0.12623, 0.12623, 0.12623, 0.11652, 0.11652, 0.11652, 0.11652, 0.0998744, 0.0998744, 0.100984, 0.100984, 0.142009, 0.142009, 0.142009, 0.142009
0.302952, 0.302952, 0.302952, 0.302952, 0.242362, 0.432789, 0.242362, 0.0998744, 0.34956, 0.34956, 0.34956, 0.34956, 0.491274, 0.204238, 0.133655, 0.133655, 6.05905, 1.81771, 0.259673, 0.259673, 0.267311, 0.267311, 0.284018, 0.284018, 0.284018, 0.284018, 0.284018, 0.284018, 0.370962, 0.370962, 0.115045, 1.51476, 0.185481, 0.185481, 3.02952, 2.59673, 2.27214, 2.01968, 0.363543, 0.363543, 0.395155, 0.395155, 0.195453, 0.727086, 0.104466, 0.104466, 0.108197, 0.108197, 0.108197, 0.108197, 1.21181, 1.13607, 0.0946726, 0.0946726, 0.0946726, 0.0946726, 0.0946726, 0.956691, 0.0966869, 0.0966869, 0.727086, 0.699121, 0.0977265, 0.0977265, 0.0622505, 0.0622505, 0.0622505, 0.0622505, 0.0622505, 0.0622505, 0.0622505, 0.0622505, 0.0631151, 0.0631151, 0.0635564, 0.0635564, 0.0649184, 0.0649184, 0.0649184, 0.0649184, 0.0649184, 0.0649184, 0.0649184, 0.0649184, 0.120378, 0.25246, 0.0663399, 0.0663399, 0.0668277, 0.0668277, 0.0673227, 0.0673227, 0.0678251, 0.0678251, 0.227214, 0.227214, 0.227214, 0.227214, 0.227214, 0.227214, 0.0721315, 0.0721315, 0.0721315, 0.0721315, 0.138757, 0.139824, 0.206558, 0.206558, 0.189345, 0.189345, 0.16988, 0.16988, 0.147782, 0.148993, 0.189345, 0.189345, 0.0554181, 0.0554181, 0.0568036, 0.147782, 0.14659, 0.145417, 0.145417, 0.144263, 0.0557581, 0.0557581, 0.128008, 0.114322, 0.122819, 0.122819, 0.118033, 0.118033, 0.0533054, 0.0533054, 0.0519347, 0.0537785, 0.0537785, 0.0523837, 0.0525351, 0.0540986, 0.0516396, 0.0516396, 0.0531495, 0.0547504, 0.0525351, 0.0525351, 0.0525351, 0.0525351, 0.0540986, 0.0540986, 0.0540986, 0.0540986, 0.0547504, 0.0547504, 0.0547504, 0.0547504, 0.0507741, 0.0507741, 0.0557581, 0.0575226, 0.0550822, 0.0550822, 0.0550822, 0.0550822, 0.0568036, 0.0568036, 0.0568036, 0.0568036, 0.0614093, 0.0614093, 0.0614093, 0.0614093, 0.0614093, 0.0614093, 0.0614093, 0.0614093, 0.0590167, 0.0590167, 0.0590167, 0.0590167, 0.0597932, 0.0597932, 0.0597932, 0.0597932, 0.0592089, 0.0592089, 0.0554181, 0.0554181, 0.0614093, 0.0614093, 0.0614093, 0.0614093, 0.0622505, 0.0622505, 0.0622505, 0.0622505, 0.0499372, 0.0499372, 0.0635564, 0.0658592, 0.0626798, 0.0626798, 0.0626798, 0.0626798, 0.0649184, 0.0649184, 0.0649184, 0.0649184, 0.0658592, 0.0658592, 0.0658592, 0.0658592, 0.0653854, 0.0653854, 0.0653854, 0.0653854, 0.0678251, 0.0678251, 0.0678251, 0.0678251, 0.0688528, 0.0688528, 0.0688528, 0.0688528, 0.0626798, 0.0626798, 0.0631151, 0.0631151, 0.0710044, 0.0710044, 0.0710044, 0.0710044, 0.0783497, 0.0783497, 0.0783497, 0.0783497, 0.0783497, 0.0783497, 0.0783497, 0.0783497, 0.0744965, 0.0744965, 0.0744965, 0.0744965, 0.0730006, 0.0732949, 0.0678251, 0.0678251, 0.0770218, 0.0770218, 0.0770218, 0.0770218, 0.0783497, 0.0783497, 0.0783497, 0.0783497, 0.070454, 0.070454, 0.0710044, 0.0710044, 0.0715635, 0.0715635, 0.0721315, 0.0721315, 0.0826234, 0.0826234, 0.0826234, 0.0826234, 0.0738908, 0.0738908, 0.0744965, 0.0744965, 0.0857412, 0.0857412, 0.0857412, 0.0857412, 0.0873901, 0.0873901, 0.0873901, 0.0873901, 0.0891036, 0.0891036, 0.0891036, 0.0891036, 0.0908857, 0.0908857, 0.0908857, 0.0908857, 0.0804298, 0.0804298, 0.0811479, 0.0811479, 0.0946726, 0.0946726, 0.0946726, 0.0946726, 0.0833814, 0.0833814, 0.0841534, 0.0841534, 0.0987888, 0.0987888, 0.0987888, 0.0987888, 0.100984, 0.100984, 0.100984, 0.100984, 0.0882385, 0.0882385, 0.0891036, 0.0891036, 0.0899858, 0.0899858, 0.0908857, 0.0908857, 0.108197, 0.108197, 0.108197, 0.108197, 0.12623, 0.12623, 0.12623, 0.12623, 0.12623, 0.12623, 0.12623, 0.12623, 0.11652, 0.11652, 0.11652, 0.11652, 0.0998744, 0.0998744, 0.100984, 0.100984, 0.142009, 0.142009, 0.142009, 0.142009
